# .PCD v0.7 - Point Cloud Data file format
VERSION 0.7
FIELDS x y z rgb
SIZE 4 4 4 4
TYPE F F F U
COUNT 1 1 1 1
WIDTH 1048
HEIGHT 1
VIEWPOINT 0 0 0 1 0 0 0
POINTS 1048
DATA ascii
0.0079974532 -0.015165702 0.27800003 7698067
0.0084634079 -0.015220254 0.27900001 7500688
0.0089005949 -0.015220254 0.27900001 7105930
0.0093377829 -0.015220254 0.27900001 8093340
0.0098100053 -0.015274806 0.28 6316929
0.01024876 -0.015274806 0.28 7171986
-0.0015804907 -0.014677094 0.27700001 7240609
-0.0011464373 -0.014677094 0.27700001 7107992
-0.00071238389 -0.014677094 0.27700001 6910613
-0.00027833041 -0.014677094 0.27700001 7502234
0.00015572303 -0.014677094 0.27700001 7765147
0.00058977649 -0.014677094 0.27700001 7895963
0.0010238299 -0.014677094 0.27700001 7961756
0.0014578834 -0.014677094 0.27700001 7698582
0.0018919369 -0.014677094 0.27700001 7764375
0.0023259902 -0.014677094 0.27700001 8290719
0.0027500798 -0.014624109 0.27600002 8685475
0.0031825663 -0.014624109 0.27600002 8685475
0.0036150529 -0.014624109 0.27600002 8356251
0.0040475391 -0.014624109 0.27600002 8356251
0.0044800257 -0.014624109 0.27600002 8158102
0.0049125124 -0.014624109 0.27600002 8158100
0.0053449986 -0.014624109 0.27600002 8355479
0.0057774847 -0.014624109 0.27600002 9078432
0.0062324712 -0.014677094 0.27700001 9144225
0.0066665243 -0.014677094 0.27700001 9012639
0.0071005779 -0.014677094 0.27700001 8749467
0.0075346315 -0.014677094 0.27700001 8749467
0.0079686847 -0.014677094 0.27700001 8617881
0.0084330738 -0.014730081 0.27800003 8486295
0.0088686934 -0.014730081 0.27800003 9013409
0.0093377829 -0.014783067 0.27900001 9078950
0.0097749699 -0.014783067 0.27900001 8355227
0.01024876 -0.014836052 0.28 8026264
0.010687514 -0.014836052 0.28 8026264
-0.0020145441 -0.014243041 0.27700001 8357555
-0.0015804907 -0.014243041 0.27700001 8684966
-0.0011464373 -0.014243041 0.27700001 9078432
-0.00071238389 -0.014243041 0.27700001 9670569
-0.00027833041 -0.014243041 0.27700001 10065579
0.00015572303 -0.014243041 0.27700001 9802405
0.00058764732 -0.014191623 0.27600002 9933991
0.0010238299 -0.014243041 0.27700001 9933991
0.0014526204 -0.014191623 0.27600002 9341854
0.0018851069 -0.014191623 0.27600002 9605026
0.0023175932 -0.014191623 0.27600002 9473440
0.0027500798 -0.014191623 0.27600002 9670819
0.0031825663 -0.014191623 0.27600002 9802405
0.0036150529 -0.014191623 0.27600002 9801632
0.0040475391 -0.014191623 0.27600002 9670046
0.0044800257 -0.014191623 0.27600002 10919600
0.0049125124 -0.014191623 0.27600002 10327461
0.0053449986 -0.014191623 0.27600002 11116977
0.0057774847 -0.014191623 0.27600002 10525353
0.0062099714 -0.014191623 0.27600002 10262181
0.006642458 -0.014191623 0.27600002 10920881
0.0070749447 -0.014191623 0.27600002 9868193
0.0075074309 -0.014191623 0.27600002 10394791
0.0079686847 -0.014243041 0.27700001 9735837
0.0084027387 -0.014243041 0.27700001 10393767
0.0088686934 -0.014294461 0.27800003 10064802
0.0093043139 -0.014294461 0.27800003 9801632
0.0097399345 -0.014294461 0.27800003 9538460
0.010212158 -0.014345879 0.27900001 10130597
0.010649345 -0.014345879 0.27900001 10064804
-0.0011464373 -0.013808988 0.27700001 11314617
-0.0007098121 -0.013759136 0.27600002 10985904
-0.00027732563 -0.013759136 0.27600002 11314869
0.00015516086 -0.013759136 0.27600002 11644604
0.00058764732 -0.013759136 0.27600002 10197412
0.0010201338 -0.013759136 0.27600002 10921135
0.0014526204 -0.013759136 0.27600002 10526634
0.0018851069 -0.013759136 0.27600002 10329255
0.0023175932 -0.013759136 0.27600002 9671325
0.0027500798 -0.013759136 0.27600002 10592427
0.0031825663 -0.013759136 0.27600002 10722986
0.0036150529 -0.013759136 0.27600002 10656680
0.0040475391 -0.013759136 0.27600002 10788266
0.0044800257 -0.013759136 0.27600002 11182252
0.0049125124 -0.013759136 0.27600002 11313838
0.0053449986 -0.013759136 0.27600002 10854057
0.0057774847 -0.013759136 0.27600002 10788264
0.0062099714 -0.013759136 0.27600002 10854057
0.006642458 -0.013759136 0.27600002 11709366
0.0070749447 -0.013759136 0.27600002 10854057
0.0075074309 -0.013759136 0.27600002 11117227
0.007939918 -0.013759136 0.27600002 10984871
0.0084027387 -0.013808988 0.27700001 10919078
0.0088367919 -0.013808988 0.27700001 10722471
0.009270845 -0.013808988 0.27700001 10722471
0.0097399345 -0.013858841 0.27800003 10656678
0.010175555 -0.013858841 0.27800003 10130334
0.011086533 -0.013908692 0.27900001 10986158
-0.002439758 -0.01332665 0.27600002 13946857
-0.0020072714 -0.01332665 0.27600002 12499411
-0.0015747851 -0.01332665 0.27600002 11314610
-0.0011422986 -0.01332665 0.27600002 11379883
-0.0007098121 -0.01332665 0.27600002 11708846
-0.00027732563 -0.01332665 0.27600002 11906225
0.00015516086 -0.01332665 0.27600002 11578030
0.00058764732 -0.01332665 0.27600002 11643825
0.0010201338 -0.01332665 0.27600002 11578032
0.0014526204 -0.01332665 0.27600002 11052201
0.0018782766 -0.013278364 0.27500001 11051688
0.0023091959 -0.013278364 0.27500001 11117481
0.0027401156 -0.013278364 0.27500001 11249067
0.0031710351 -0.013278364 0.27500001 11643055
0.0036019546 -0.013278364 0.27500001 11774641
0.004032874 -0.013278364 0.27500001 11379883
0.0044637937 -0.013278364 0.27500001 11511469
0.0048947129 -0.013278364 0.27500001 11313575
0.0053256322 -0.013278364 0.27500001 11379368
0.0057565519 -0.013278364 0.27500001 11379368
0.0061874711 -0.013278364 0.27500001 12037298
0.0066183908 -0.013278364 0.27500001 12103604
0.00704931 -0.013278364 0.27500001 12169397
0.0074802297 -0.013278364 0.27500001 11050918
0.007939918 -0.01332665 0.27600002 11247784
0.0083724037 -0.01332665 0.27600002 10985125
0.0088048903 -0.01332665 0.27600002 10985125
0.009270845 -0.013374934 0.27700001 11050664
0.0097048981 -0.013374934 0.27700001 11117227
0.010175555 -0.01342322 0.27800003 10393504
0.011086533 -0.013471505 0.27900001 11709364
-0.0028722445 -0.012894163 0.27600002 4807061
-0.002439758 -0.012894163 0.27600002 14276333
-0.0020072714 -0.012894163 0.27600002 11841992
-0.0015747851 -0.012894163 0.27600002 11248815
-0.0011422986 -0.012894163 0.27600002 11445674
-0.00070724031 -0.012847444 0.27500001 11972018
-0.00027732563 -0.012894163 0.27600002 11840432
0.00015516086 -0.012894163 0.27600002 11774639
0.00058551814 -0.012847444 0.27500001 11774639
0.0010164375 -0.012847444 0.27500001 11774639
0.0014473571 -0.012847444 0.27500001 11445674
0.0018782766 -0.012847444 0.27500001 11445674
0.0023091959 -0.012847444 0.27500001 11774639
0.0027401156 -0.012847444 0.27500001 11708846
0.0031710351 -0.012847444 0.27500001 11708846
0.0036019546 -0.012847444 0.27500001 11708846
0.004032874 -0.012847444 0.27500001 11906225
0.0044637937 -0.012847444 0.27500001 12168884
0.0048947129 -0.012847444 0.27500001 12037296
0.0053256322 -0.012847444 0.27500001 11510438
0.0057565519 -0.012847444 0.27500001 11444645
0.0061874711 -0.012847444 0.27500001 11971503
0.0066183908 -0.012847444 0.27500001 11972018
0.00704931 -0.012847444 0.27500001 12300983
0.0074802297 -0.012847444 0.27500001 11708846
0.0079111494 -0.012847444 0.27500001 11643053
0.0083724037 -0.012894163 0.27600002 11840432
0.0088048903 -0.012894163 0.27600002 11774639
0.009237377 -0.012894163 0.27600002 11774639
0.0097048981 -0.012940881 0.27700001 11840432
0.010138952 -0.012940881 0.27700001 11774639
0.010611176 -0.0129876 0.27800003 11511465
0.011046796 -0.0129876 0.27800003 11839917
-0.0032927573 -0.012416525 0.27500001 2119600
-0.0028618376 -0.012416525 0.27500001 10268904
-0.0024309182 -0.012416525 0.27500001 13619943
-0.0019999987 -0.012416525 0.27500001 11975118
-0.0015690792 -0.012416525 0.27500001 11513268
-0.0011381598 -0.012416525 0.27500001 11644334
-0.00070724031 -0.012416525 0.27500001 11709867
-0.00027632079 -0.012416525 0.27500001 11644074
0.00015459867 -0.012416525 0.27500001 11643304
0.00058551814 -0.012416525 0.27500001 11445925
0.0010164375 -0.012416525 0.27500001 11445925
0.0014473571 -0.012416525 0.27500001 11709097
0.0018782766 -0.012416525 0.27500001 11511465
0.0023091959 -0.012416525 0.27500001 11774637
0.0027401156 -0.012416525 0.27500001 11906223
0.0031710351 -0.012416525 0.27500001 11972016
0.0036019546 -0.012416525 0.27500001 12300468
0.004032874 -0.012416525 0.27500001 12300468
0.0044637937 -0.012416525 0.27500001 11971503
0.0048947129 -0.012416525 0.27500001 12037035
0.0053256322 -0.012416525 0.27500001 11905449
0.0057565519 -0.012416525 0.27500001 11708070
0.0061874711 -0.012416525 0.27500001 12102828
0.0066183908 -0.012416525 0.27500001 12168882
0.00704931 -0.012416525 0.27500001 12168882
0.0074802297 -0.012416525 0.27500001 11774637
0.0079111494 -0.012416525 0.27500001 11708844
0.0083420686 -0.012416525 0.27500001 11840430
0.0087729879 -0.012416525 0.27500001 11840430
0.009237377 -0.012461677 0.27600002 11840430
0.0096698627 -0.012461677 0.27600002 11379879
0.010138952 -0.012506827 0.27700001 11445672
0.010573005 -0.012506827 0.27700001 11511465
0.011046796 -0.012551979 0.27800003 11708584
0.011960907 -0.01259713 0.27900001 12431793
-0.0032927573 -0.011985606 0.27500001 2119600
-0.0028618376 -0.011985606 0.27500001 10137831
-0.0024309182 -0.011985606 0.27500001 13422564
-0.0019999987 -0.011985606 0.27500001 11777739
-0.0015690792 -0.011985606 0.27500001 11447732
-0.0011381598 -0.011985606 0.27500001 11644587
-0.00070724031 -0.011985606 0.27500001 11709867
-0.00027632079 -0.011985606 0.27500001 11578281
0.00015459867 -0.011985606 0.27500001 11511718
0.00058551814 -0.011985606 0.27500001 11445925
0.0010164375 -0.011985606 0.27500001 11445925
0.0014473571 -0.011985606 0.27500001 11709097
0.0018782766 -0.011985606 0.27500001 11709097
0.0023091959 -0.011985606 0.27500001 11972269
0.0027401156 -0.011985606 0.27500001 12235441
0.0031710351 -0.011985606 0.27500001 12432820
0.0035888567 -0.011942022 0.27400002 12235441
0.0040182089 -0.011942022 0.27400002 12169135
0.0044475617 -0.011942022 0.27400002 12037549
0.0048769144 -0.011942022 0.27400002 11905963
0.0053256322 -0.011985606 0.27500001 12037549
0.005735619 -0.011942022 0.27400002 12037549
0.0061874711 -0.011985606 0.27500001 12037549
0.0066183908 -0.011985606 0.27500001 12037549
0.00704931 -0.011985606 0.27500001 12037549
0.0074802297 -0.011985606 0.27500001 11905710
0.0079111494 -0.011985606 0.27500001 11905710
0.0083420686 -0.011985606 0.27500001 11840430
0.0087729879 -0.011985606 0.27500001 11708844
0.009237377 -0.012029191 0.27600002 11182500
0.0096698627 -0.012029191 0.27600002 11379879
0.010102349 -0.012029191 0.27600002 11379879
0.011046796 -0.012116359 0.27800003 11445410
0.011482417 -0.012116359 0.27800003 11708582
0.011960907 -0.012159942 0.27900001 13287100
-0.0028618376 -0.011554686 0.27500001 9875429
-0.0024309182 -0.011554686 0.27500001 13028319
-0.0019999987 -0.011554686 0.27500001 11449287
-0.0015690792 -0.011554686 0.27500001 11447986
-0.0011381598 -0.011554686 0.27500001 11644587
-0.00070724031 -0.011554686 0.27500001 11380902
-0.00027632079 -0.011554686 0.27500001 11380902
0.00015459867 -0.011554686 0.27500001 11511718
0.00058551814 -0.011554686 0.27500001 11511718
0.0010164375 -0.011554686 0.27500001 11511718
0.0014473571 -0.011554686 0.27500001 11643304
0.0018782766 -0.011554686 0.27500001 11709097
0.0023007991 -0.01151267 0.27400002 11840683
0.0027301516 -0.01151267 0.27400002 12367027
0.0031595042 -0.01151267 0.27400002 11906476
0.0035888567 -0.01151267 0.27400002 12301234
0.0040182089 -0.01151267 0.27400002 11971756
0.0044475617 -0.01151267 0.27400002 12037549
0.0048769144 -0.01151267 0.27400002 11971756
0.0053062662 -0.01151267 0.27400002 11971756
0.005735619 -0.01151267 0.27400002 12037549
0.0061649717 -0.01151267 0.27400002 12169135
0.006594324 -0.01151267 0.27400002 11971756
0.0070236768 -0.01151267 0.27400002 11971503
0.0074802297 -0.011554686 0.27500001 12234675
0.0078823818 -0.01151267 0.27400002 12169395
0.0083420686 -0.011554686 0.27500001 11708844
0.0087729879 -0.011554686 0.27500001 11445672
0.0092039071 -0.011554686 0.27500001 11379879
0.0096698627 -0.011596704 0.27600002 11314339
0.011007058 -0.011638721 0.27700001 11511203
0.011482417 -0.011680738 0.27800003 12037547
0.011960907 -0.011722755 0.27900001 12892342
-0.0024309182 -0.011123766 0.27500001 12699618
-0.0019999987 -0.011123766 0.27500001 11712723
-0.0015690792 -0.011123766 0.27500001 11185330
-0.0011381598 -0.011123766 0.27500001 11578541
-0.00070724031 -0.011123766 0.27500001 11315109
-0.00027632079 -0.011123766 0.27500001 11249316
0.00015459867 -0.011123766 0.27500001 11906476
0.00058551814 -0.011123766 0.27500001 12301234
0.0010164375 -0.011123766 0.27500001 11906476
0.0014473571 -0.011123766 0.27500001 11511718
0.0018714466 -0.011083317 0.27400002 11445925
0.0023007991 -0.011083317 0.27400002 11314339
0.0027301516 -0.011083317 0.27400002 11643304
0.0031595042 -0.011083317 0.27400002 12037549
0.0035888567 -0.011083317 0.27400002 11576998
0.0040182089 -0.011083317 0.27400002 11708584
0.0044475617 -0.011083317 0.27400002 11511205
0.0048769144 -0.011083317 0.27400002 11445412
0.0053062662 -0.011083317 0.27400002 11313573
0.005735619 -0.011083317 0.27400002 11247780
0.0061649717 -0.011083317 0.27400002 11313573
0.006594324 -0.011083317 0.27400002 11379366
0.0070236768 -0.011083317 0.27400002 11314086
0.0074802297 -0.011123766 0.27500001 11379879
0.0079111494 -0.011123766 0.27500001 11050914
0.0083420686 -0.011123766 0.27500001 10919328
0.0087729879 -0.011123766 0.27500001 10721949
0.0092039071 -0.011123766 0.27500001 10787742
0.0096698627 -0.011164217 0.27600002 10985121
0.010102349 -0.011164217 0.27600002 10985121
0.010573005 -0.011204666 0.27700001 11051167
0.011007058 -0.011204666 0.27700001 11314339
0.011482417 -0.011245118 0.27800003 11380132
0.011960907 -0.011285567 0.27900001 12103604
-0.0019999987 -0.010692847 0.27500001 10987955
-0.0015690792 -0.010692847 0.27500001 10658990
-0.0011381598 -0.010692847 0.27500001 10921383
-0.00070724031 -0.010692847 0.27500001 11249063
-0.00027632079 -0.010692847 0.27500001 11183270
0.00015459867 -0.010692847 0.27500001 11643304
0.00058551814 -0.010692847 0.27500001 12169648
0.0010164375 -0.010692847 0.27500001 11840683
0.0014420941 -0.010653964 0.27400002 11380902
0.0018714466 -0.010653964 0.27400002 10920351
0.0023007991 -0.010653964 0.27400002 10985374
0.0027301516 -0.010653964 0.27400002 11182753
0.0031595042 -0.010653964 0.27400002 11708584
0.0035888567 -0.010653964 0.27400002 11313826
0.0040182089 -0.010653964 0.27400002 11445159
0.0044475617 -0.010653964 0.27400002 11247780
0.0048769144 -0.010653964 0.27400002 10853022
0.0053062662 -0.010653964 0.27400002 10853022
0.005735619 -0.010653964 0.27400002 10984608
0.0061649717 -0.010653964 0.27400002 11314086
0.006594324 -0.010653964 0.27400002 11248295
0.0070236768 -0.010653964 0.27400002 10919330
0.007453029 -0.010653964 0.27400002 10985123
0.0079111494 -0.010692847 0.27500001 10985123
0.0083420686 -0.010692847 0.27500001 10721951
0.0087729879 -0.010692847 0.27500001 10524572
0.0092039071 -0.010692847 0.27500001 10524570
0.0096698627 -0.010731731 0.27600002 10524570
0.010102349 -0.010731731 0.27600002 10590363
0.010573005 -0.010770613 0.27700001 11051167
0.011007058 -0.010770613 0.27700001 10787995
0.011482417 -0.010809497 0.27800003 10722202
0.011960907 -0.01084838 0.27900001 11643055
-0.0032927573 -0.010261928 0.27500001 2515642
-0.0028618376 -0.010261928 0.27500001 7704783
-0.0024309182 -0.010261928 0.27500001 10660814
-0.0019999987 -0.010261928 0.27500001 10526902
-0.0015690792 -0.010261928 0.27500001 10790074
-0.0011381598 -0.010261928 0.27500001 10723756
-0.00070724031 -0.010261928 0.27500001 10393506
-0.00027632079 -0.010261928 0.27500001 10393506
0.00015459867 -0.010261928 0.27500001 10656676
0.00058551814 -0.010261928 0.27500001 10327711
0.0010164375 -0.010261928 0.27500001 10130332
0.0014473571 -0.010261928 0.27500001 10393504
0.0018714466 -0.010224611 0.27400002 10591396
0.0023007991 -0.010224611 0.27400002 10196638
0.0027301516 -0.010224611 0.27400002 10065052
0.0031595042 -0.010224611 0.27400002 10656930
0.0035888567 -0.010224611 0.27400002 11249067
0.0040182089 -0.010224611 0.27400002 10854309
0.0044475617 -0.010224611 0.27400002 10722723
0.0048769144 -0.010224611 0.27400002 10591137
0.0053062662 -0.010224611 0.27400002 10327965
0.005735619 -0.010224611 0.27400002 10064793
0.0061649717 -0.010224611 0.27400002 11182502
0.006594324 -0.010224611 0.27400002 11249067
0.00704931 -0.010261928 0.27500001 11183274
0.0074802297 -0.010261928 0.27500001 10722723
0.0079111494 -0.010261928 0.27500001 10920102
0.0083420686 -0.010261928 0.27500001 10393758
0.0087729879 -0.010261928 0.27500001 10064793
0.009237377 -0.010299244 0.27600002 10130586
0.0096698627 -0.010299244 0.27600002 9998228
0.010138952 -0.01033656 0.27700001 9800849
0.010573005 -0.01033656 0.27700001 10195607
0.011007058 -0.01033656 0.27700001 10721951
0.011482417 -0.010373876 0.27800003 10590365
0.011960907 -0.010411192 0.27900001 10919078
-0.0032927573 -0.0098310076 0.27500001 2778812
-0.0028618376 -0.0098310076 0.27500001 5994937
-0.0024309182 -0.0098310076 0.27500001 8686772
-0.0019999987 -0.0098310076 0.27500001 9277351
-0.0015690792 -0.0098310076 0.27500001 9211558
-0.0011381598 -0.0098310076 0.27500001 9210011
-0.00070724031 -0.0098310076 0.27500001 9605021
-0.00027632079 -0.0098310076 0.27500001 9539228
0.00015459867 -0.0098310076 0.27500001 9999263
0.00058551814 -0.0098310076 0.27500001 9999263
0.0010164375 -0.0098310076 0.27500001 9801884
0.0014473571 -0.0098310076 0.27500001 10130849
0.0018782766 -0.0098310076 0.27500001 9801884
0.0023007991 -0.0097952588 0.27400002 9867677
0.0027301516 -0.0097952588 0.27400002 9999263
0.0031595042 -0.0097952588 0.27400002 9209745
0.0035888567 -0.0097952588 0.27400002 10262433
0.0040182089 -0.0097952588 0.27400002 9801884
0.0044475617 -0.0097952588 0.27400002 10525607
0.0048769144 -0.0097952588 0.27400002 10000031
0.0053062662 -0.0097952588 0.27400002 9868445
0.005735619 -0.0097952588 0.27400002 10000031
0.0061649717 -0.0097952588 0.27400002 9736859
0.0066183908 -0.0098310076 0.27500001 9539480
0.00704931 -0.0098310076 0.27500001 9407894
0.0074802297 -0.0098310076 0.27500001 9276308
0.0079111494 -0.0098310076 0.27500001 9538712
0.0083420686 -0.0098310076 0.27500001 9604503
0.0088048903 -0.0098667573 0.27600002 9275538
0.009237377 -0.0098667573 0.27600002 9143952
0.0096698627 -0.0098667573 0.27600002 9143952
0.010138952 -0.0099025061 0.27700001 9341331
0.011482417 -0.0099382559 0.27800003 9669781
-0.0032927573 -0.0094000883 0.27500001 2646712
-0.0028618376 -0.0094000883 0.27500001 5402546
-0.0024309182 -0.0094000883 0.27500001 8753596
-0.0019999987 -0.0094000883 0.27500001 7633559
-0.0015690792 -0.0094000883 0.27500001 7501973
-0.0011381598 -0.0094000883 0.27500001 7895698
-0.00070724031 -0.0094000883 0.27500001 7829387
-0.00027632079 -0.0094000883 0.27500001 8421524
0.00015459867 -0.0094000883 0.27500001 8289936
0.00058551814 -0.0094000883 0.27500001 9342106
0.0010164375 -0.0094000883 0.27500001 9407899
0.0014473571 -0.0094000883 0.27500001 9407899
0.0018782766 -0.0094000883 0.27500001 8881555
0.0023091959 -0.0094000883 0.27500001 9078934
0.0027401156 -0.0094000883 0.27500001 9078934
0.0031710351 -0.0094000883 0.27500001 9078934
0.0035888567 -0.0093659069 0.27400002 9473692
0.004032874 -0.0094000883 0.27500001 8421774
0.0044475617 -0.0093659069 0.27400002 9013911
0.0048947129 -0.0094000883 0.27500001 8619923
0.0053256322 -0.0094000883 0.27500001 8422544
0.0057565519 -0.0094000883 0.27500001 8817302
0.0061874711 -0.0094000883 0.27500001 8619923
0.0066183908 -0.0094000883 0.27500001 9079704
0.00704931 -0.0094000883 0.27500001 8947348
0.0074802297 -0.0094000883 0.27500001 8618383
0.007939918 -0.0094342707 0.27600002 8618383
0.0083724037 -0.0094342707 0.27600002 8749969
0.0088048903 -0.0094342707 0.27600002 9473692
0.009237377 -0.0094342707 0.27600002 9210263
0.0097048981 -0.009468453 0.27700001 8684173
0.010138952 -0.009468453 0.27700001 8684173
0.010611176 -0.0095026353 0.27800003 9013138
-0.0028618376 -0.0089691691 0.27500001 5403061
-0.0024309182 -0.0089691691 0.27500001 8161979
-0.0019999987 -0.0089691691 0.27500001 7107730
-0.0015690792 -0.0089691691 0.27500001 6384007
-0.0011381598 -0.0089691691 0.27500001 7435662
-0.00070724031 -0.0089691691 0.27500001 7435914
-0.00027632079 -0.0089691691 0.27500001 7435914
0.00015459867 -0.0089691691 0.27500001 7698571
0.00058551814 -0.0089691691 0.27500001 7698571
0.0010164375 -0.0089691691 0.27500001 7040641
0.0014473571 -0.0089691691 0.27500001 7106434
0.0018782766 -0.0089691691 0.27500001 7566985
0.0023091959 -0.0089691691 0.27500001 7764364
0.0027401156 -0.0089691691 0.27500001 7764364
0.0031710351 -0.0089691691 0.27500001 7566985
0.0036019546 -0.0089691691 0.27500001 7369606
0.004032874 -0.0089691691 0.27500001 7962256
0.0044637937 -0.0089691691 0.27500001 7830670
0.0048947129 -0.0089691691 0.27500001 7568268
0.0053256322 -0.0089691691 0.27500001 7568268
0.0057565519 -0.0089691691 0.27500001 6910338
0.0061874711 -0.0089691691 0.27500001 7502475
0.0066183908 -0.0089691691 0.27500001 7765647
0.00704931 -0.0089691691 0.27500001 7501705
0.0075074309 -0.009001785 0.27600002 7633291
0.007939918 -0.009001785 0.27600002 7764364
0.0084027387 -0.0090343989 0.27700001 7764364
0.0088367919 -0.0090343989 0.27700001 7698571
0.009270845 -0.0090343989 0.27700001 7698571
0.0097048981 -0.0090343989 0.27700001 7566985
0.010175555 -0.0090670148 0.27800003 7501192
-0.0019999987 -0.0085382499 0.27500001 6385039
-0.0015690792 -0.0085382499 0.27500001 6385039
-0.0011381598 -0.0085382499 0.27500001 6976140
-0.00070724031 -0.0085382499 0.27500001 7765397
-0.00027632079 -0.0085382499 0.27500001 7633811
0.00015459867 -0.0085382499 0.27500001 7633809
0.00058551814 -0.0085382499 0.27500001 7896211
0.0010164375 -0.0085382499 0.27500001 6975109
0.0014473571 -0.0085382499 0.27500001 6843523
0.0018782766 -0.0085382499 0.27500001 6975111
0.0023091959 -0.0085382499 0.27500001 7040902
0.0027401156 -0.0085382499 0.27500001 6909316
0.0031710351 -0.0085382499 0.27500001 7172488
0.0036019546 -0.0085382499 0.27500001 7304074
0.004032874 -0.0085382499 0.27500001 7633039
0.0044637937 -0.0085382499 0.27500001 7172488
0.0048947129 -0.0085382499 0.27500001 7041672
0.0053256322 -0.0085382499 0.27500001 7041672
0.0057565519 -0.0085382499 0.27500001 7173258
0.0062099714 -0.0085692983 0.27600002 7173512
0.006642458 -0.0085692983 0.27600002 7634063
0.0070749447 -0.0085692983 0.27600002 7370891
0.0075346315 -0.0086003467 0.27700001 7370891
0.0079686847 -0.0086003467 0.27700001 7435660
0.0084027387 -0.0086003467 0.27700001 7435660
0.0088686934 -0.0086313952 0.27800003 7369867
0.0093043139 -0.0086313952 0.27800003 7304074
0.0097399345 -0.0086313952 0.27800003 7172488
0.010175555 -0.0086313952 0.27800003 6909316
-0.001992726 -0.0080778496 0.27400002 5136778
-0.0015690792 -0.0081073307 0.27500001 5597329
-0.0011381598 -0.0081073307 0.27500001 5793415
-0.00070724031 -0.0081073307 0.27500001 5464189
-0.00027632079 -0.0081073307 0.27500001 5924740
0.00015459867 -0.0081073307 0.27500001 5858947
0.00058551814 -0.0081073307 0.27500001 5989763
0.0010164375 -0.0081073307 0.27500001 5857663
0.0014473571 -0.0081073307 0.27500001 6120835
0.0018782766 -0.0081073307 0.27500001 6055042
0.0023091959 -0.0081073307 0.27500001 6120835
0.0027401156 -0.0081073307 0.27500001 6120835
0.0031710351 -0.0081073307 0.27500001 6055042
0.0036019546 -0.0081073307 0.27500001 5988734
0.004032874 -0.0081073307 0.27500001 6186113
0.0044637937 -0.0081073307 0.27500001 6317699
0.0048947129 -0.0081073307 0.27500001 5923454
0.0053449986 -0.0081368117 0.27600002 6976142
0.0057774847 -0.0081368117 0.27600002 6581384
0.0062099714 -0.0081368117 0.27600002 6384003
0.006642458 -0.0081368117 0.27600002 6581382
0.0071005779 -0.0081662927 0.27700001 6384003
0.0075346315 -0.0081662927 0.27700001 6384003
0.0079686847 -0.0081662927 0.27700001 6778248
0.0084330738 -0.0081957746 0.27800003 6317697
0.0088686934 -0.0081957746 0.27800003 5462390
0.0093043139 -0.0081957746 0.27800003 5791355
0.0097749699 -0.0082252556 0.27900001 5988734
-0.001992726 -0.0076484969 0.27400002 5072272
-0.0015633736 -0.0076484969 0.27400002 5072272
-0.0011381598 -0.007676411 0.27500001 5268102
-0.00070724031 -0.007676411 0.27500001 5003899
-0.00027632079 -0.007676411 0.27500001 5069692
0.00015459867 -0.007676411 0.27500001 5530241
0.00058551814 -0.007676411 0.27500001 5661314
0.0010164375 -0.007676411 0.27500001 5595521
0.0014473571 -0.007676411 0.27500001 5661314
0.0018782766 -0.007676411 0.27500001 5594751
0.0023091959 -0.007676411 0.27500001 5792130
0.0027401156 -0.007676411 0.27500001 5660544
0.0031710351 -0.007676411 0.27500001 5792130
0.0036019546 -0.007676411 0.27500001 5134454
0.004032874 -0.007676411 0.27500001 5857663
0.0044800257 -0.0077043255 0.27600002 5660284
0.0049125124 -0.0077043255 0.27600002 5199733
0.0053449986 -0.0077043255 0.27600002 6120833
0.0057774847 -0.0077043255 0.27600002 5791868
0.0062099714 -0.0077043255 0.27600002 6318212
0.0066665243 -0.0077322396 0.27700001 5923454
0.0071005779 -0.0077322396 0.27700001 5660282
0.0075346315 -0.0077322396 0.27700001 5923454
0.0079974532 -0.0077601541 0.27800003 5791868
0.0084330738 -0.0077601541 0.27800003 6120833
0.0089005949 -0.0077880677 0.27900001 5791868
0.0093377829 -0.0077880677 0.27900001 5660282
0.0097749699 -0.0077880677 0.27900001 5660282
0.010212158 -0.0077880677 0.27900001 5660282
-0.0019854531 -0.0071927966 0.273 3889027
-0.0015633736 -0.0072191441 0.27400002 3296890
-0.001134021 -0.0072191441 0.27400002 4808067
-0.00070466852 -0.0072191441 0.27400002 4807036
-0.00027632079 -0.0072454913 0.27500001 4741243
0.00015459867 -0.0072454913 0.27500001 4872059
0.00058551814 -0.0072454913 0.27500001 5003132
0.0010164375 -0.0072454913 0.27500001 4542581
0.0014473571 -0.0072454913 0.27500001 4542581
0.0018782766 -0.0072454913 0.27500001 4739960
0.0023091959 -0.0072454913 0.27500001 5200765
0.0027401156 -0.0072454913 0.27500001 5069179
0.0031825663 -0.0072718388 0.27600002 5069179
0.0036150529 -0.0072718388 0.27600002 5003386
0.0040475391 -0.0072718388 0.27600002 5069179
0.0044800257 -0.0072718388 0.27600002 5069179
0.0049125124 -0.0072718388 0.27600002 5069177
0.0053449986 -0.0072718388 0.27600002 5463165
0.0057774847 -0.0072718388 0.27600002 5528958
0.0062324712 -0.007298186 0.27700001 5529212
0.0066665243 -0.007298186 0.27700001 5266040
0.0071005779 -0.007298186 0.27700001 5200247
0.0075618327 -0.0073245335 0.27800003 5660284
0.0079974532 -0.0073245335 0.27800003 4541803
0.0084330738 -0.0073245335 0.27800003 5002354
0.0089005949 -0.0073508807 0.27900001 5265526
0.0093377829 -0.0073508807 0.27900001 5199733
-0.0019709079 -0.0067154514 0.27100003 3757443
-0.0015462564 -0.0067154514 0.27100003 4479102
-0.001134021 -0.0067897919 0.27400002 4479102
-0.00070466852 -0.0067897919 0.27400002 4675450
-0.00027531601 -0.0067897919 0.27400002 4543864
0.00015459867 -0.0068145716 0.27500001 4674680
0.00058551814 -0.0068145716 0.27500001 4739960
0.0010164375 -0.0068145716 0.27500001 4608374
0.0014473571 -0.0068145716 0.27500001 4608374
0.0018782766 -0.0068145716 0.27500001 4476788
0.0023091959 -0.0068145716 0.27500001 5003132
0.0027401156 -0.0068145716 0.27500001 5068925
0.0031825663 -0.0068393527 0.27600002 4937593
0.0036150529 -0.0068393527 0.27600002 5003386
0.0040475391 -0.0068393527 0.27600002 5069179
0.0044800257 -0.0068393527 0.27600002 5003386
0.0049125124 -0.0068393527 0.27600002 5003386
0.0053449986 -0.0068393527 0.27600002 4937591
0.0057774847 -0.0068393527 0.27600002 5200763
0.0062324712 -0.0068641324 0.27700001 5200763
0.0066665243 -0.0068641324 0.27700001 5199993
0.0071005779 -0.0068641324 0.27700001 5199993
0.0075618327 -0.006888913 0.27800003 5002614
0.0079974532 -0.006888913 0.27800003 4871028
0.0084634079 -0.0069136932 0.27900001 5002614
0.0089005949 -0.0069136932 0.27900001 4871028
0.0093377829 -0.0069136932 0.27900001 4871028
-0.0028098044 -0.0062675858 0.27000001 3367326
-0.001134021 -0.0063604391 0.27400002 4480133
-0.00070466852 -0.0063604391 0.27400002 4807553
-0.00027531601 -0.0063604391 0.27400002 4543096
0.00015459867 -0.0063836523 0.27500001 4608889
0.00058551814 -0.0063836523 0.27500001 4674682
0.0010164375 -0.0063836523 0.27500001 4543096
0.0014473571 -0.0063836523 0.27500001 4477303
0.0018851069 -0.006406866 0.27600002 4345715
0.0023175932 -0.006406866 0.27600002 4872059
0.0027500798 -0.006406866 0.27600002 4937852
0.0031825663 -0.006406866 0.27600002 4872059
0.0036150529 -0.006406866 0.27600002 5003899
0.0040475391 -0.006406866 0.27600002 5069692
0.0044800257 -0.006406866 0.27600002 4938106
0.0049125124 -0.006406866 0.27600002 4938106
0.0053449986 -0.006406866 0.27600002 4937593
0.0057984176 -0.0064300788 0.27700001 5003386
0.0062324712 -0.0064300788 0.27700001 5003384
0.0066665243 -0.0064300788 0.27700001 5134970
0.0071262121 -0.0064532924 0.27800003 5134970
0.0075618327 -0.0064532924 0.27800003 4937591
0.0079974532 -0.0064532924 0.27800003 5068407
0.0084634079 -0.0064765057 0.27900001 5199993
-0.0011050497 -0.0057795625 0.26700002 4676997
0.0040475391 -0.0059743794 0.27600002 4872829
-0.0015177275 -0.0053410991 0.266 4086670
-0.0010967721 -0.0053210203 0.26500002 4414342
-0.00026426316 -0.0052808616 0.26300001 4676227
0.00014785255 -0.0052808616 0.26300001 4742020
0.00055783917 -0.0052607823 0.26200002 4610434
-0.0015006104 -0.0048687458 0.26300001 3955086
-0.0010884947 -0.0048687458 0.26300001 4217481
-0.0006763789 -0.0048687458 0.26300001 4348549
-0.00026426316 -0.0048687458 0.26300001 4611206
0.00014729038 -0.0048502334 0.26200002 4611206
0.00055783917 -0.0048502334 0.26200002 4676229
0.0029980696 -0.0048132087 0.26000002 4676229
0.0034054846 -0.0048132087 0.26000002 4610436
-0.001912726 -0.00445663 0.26300001 4677780
-0.0015006104 -0.00445663 0.26300001 4019850
-0.0010884947 -0.00445663 0.26300001 4283272
-0.00067380717 -0.0044396846 0.26200002 4677001
-0.00026325838 -0.0044396846 0.26200002 4742022
0.00014729038 -0.0044396846 0.26200002 4676229
0.00055783917 -0.0044396846 0.26200002 4676229
0.0038128991 -0.0044057942 0.26000002 4478850
0.0042203143 -0.0044057942 0.26000002 5070987
0.0046277288 -0.0044057942 0.26000002 4939401
0.0050351433 -0.0044057942 0.26000002 4807815
0.0054425583 -0.0044057942 0.26000002 4807815
-0.001912726 -0.0040445146 0.26300001 5598880
-0.0015006104 -0.0040445146 0.26300001 4743571
-0.0010843559 -0.0040291362 0.26200002 4677001
-0.00067380717 -0.0040291362 0.26200002 4807817
-0.00026325838 -0.0040291362 0.26200002 4742022
0.00014729038 -0.0040291362 0.26200002 4742022
0.00055783917 -0.0040291362 0.26200002 5268364
0.00096469169 -0.0040137577 0.26100001 5399436
0.0021832399 -0.0039983792 0.26000002 5399436
0.0038128991 -0.0039983792 0.26000002 5005194
0.0042203143 -0.0039983792 0.26000002 5070987
0.0046277288 -0.0039983792 0.26000002 5070987
0.0050351433 -0.0039983792 0.26000002 4939401
0.0054425583 -0.0039983792 0.26000002 4807815
0.0058499733 -0.0039983792 0.26000002 4873094
-0.0019054534 -0.0036185875 0.26200002 5730466
-0.0014949047 -0.0036185875 0.26200002 5269138
-0.0010843559 -0.0036185875 0.26200002 5071759
-0.00067380717 -0.0036185875 0.26200002 5136780
-0.00026325838 -0.0036185875 0.26200002 5399952
0.00014729038 -0.0036185875 0.26200002 5663124
0.00055783917 -0.0036185875 0.26200002 5399436
0.00096469169 -0.0036047758 0.26100001 5596815
0.0025906549 -0.0035909645 0.26000002 6057620
0.0034054846 -0.0035909645 0.26000002 5662862
0.0038128991 -0.0035909645 0.26000002 5794448
0.0042203143 -0.0035909645 0.26000002 5268104
0.0046277288 -0.0035909645 0.26000002 5202311
0.0050351433 -0.0035909645 0.26000002 5136518
0.0054425583 -0.0035909645 0.26000002 5070725
0.0058499733 -0.0035909645 0.26000002 5267850
0.0062573878 -0.0035909645 0.26000002 5596815
0.0066648028 -0.0035909645 0.26000002 5859987
0.0075083999 -0.0036047758 0.26100001 5662095
0.0079173818 -0.0036047758 0.26100001 5004165
0.0083263628 -0.0036047758 0.26100001 5398923
0.0087353447 -0.0036047758 0.26100001 5333130
-0.0019054534 -0.0032080386 0.26200002 5796772
-0.0014949047 -0.0032080386 0.26200002 5729689
-0.0010843559 -0.0032080386 0.26200002 5532310
-0.00067380717 -0.0032080386 0.26200002 5400722
-0.00026325838 -0.0032080386 0.26200002 5531536
0.00014729038 -0.0032080386 0.26200002 5531536
0.00055570994 -0.0031957941 0.26100001 5399950
0.00096469169 -0.0031957941 0.26100001 7044513
0.0013736734 -0.0031957941 0.26100001 6123411
0.0017826553 -0.0031957941 0.26100001 6123411
0.0021832399 -0.0031835497 0.26000002 5794446
0.0025906549 -0.0031835497 0.26000002 5925519
0.0029980696 -0.0031835497 0.26000002 5662347
0.0034054846 -0.0031835497 0.26000002 5662347
0.0038128991 -0.0031835497 0.26000002 6057105
0.0042203143 -0.0031835497 0.26000002 5859726
0.0046277288 -0.0031835497 0.26000002 5925519
0.0050351433 -0.0031835497 0.26000002 5464968
0.0054425583 -0.0031835497 0.26000002 5464968
0.0058499733 -0.0031835497 0.26000002 5464968
0.0062573878 -0.0031835497 0.26000002 5662347
0.0066648028 -0.0031835497 0.26000002 5793935
0.0070722178 -0.0031835497 0.26000002 5793935
0.0074796323 -0.0031835497 0.26000002 5925521
0.0079173818 -0.0031957941 0.26100001 5793935
0.0083263628 -0.0031957941 0.26100001 5925521
0.0087353447 -0.0031957941 0.26100001 5596556
0.0091443267 -0.0031957941 0.26100001 5596556
-0.0023160023 -0.0027974898 0.26200002 5403563
-0.0019054534 -0.0027974898 0.26200002 5796259
-0.0014949047 -0.0027974898 0.26200002 5861275
-0.0010843559 -0.0027974898 0.26200002 5927068
-0.00067380717 -0.0027974898 0.26200002 6123675
-0.00026325838 -0.0027974898 0.26200002 6386072
0.0001467282 -0.0027868121 0.26100001 6057107
0.00055570994 -0.0027868121 0.26100001 6254484
0.00096469169 -0.0027868121 0.26100001 6320275
0.0013736734 -0.0027868121 0.26100001 6977435
0.0017826553 -0.0027868121 0.26100001 6714263
0.0021832399 -0.002776135 0.26000002 6845849
0.0025906549 -0.002776135 0.26000002 6714517
0.0029980696 -0.002776135 0.26000002 6451345
0.0034054846 -0.002776135 0.26000002 6451345
0.0038128991 -0.002776135 0.26000002 6517138
0.0042203143 -0.002776135 0.26000002 6516884
0.0046277288 -0.002776135 0.26000002 6516884
0.0050351433 -0.002776135 0.26000002 6648470
0.0054425583 -0.002776135 0.26000002 6451091
0.0058499733 -0.002776135 0.26000002 6648470
0.0062573878 -0.002776135 0.26000002 6714263
0.0066648028 -0.002776135 0.26000002 6516884
0.0070722178 -0.002776135 0.26000002 6451091
0.0074796323 -0.002776135 0.26000002 6451091
0.0079173818 -0.0027868121 0.26100001 6714263
0.0083263628 -0.0027868121 0.26100001 6516884
0.0087353447 -0.0027868121 0.26100001 6451091
0.0091443267 -0.0027868121 0.26100001 6385298
0.0095533086 -0.0027868121 0.26100001 6319505
-0.0027265509 -0.0023869413 0.26200002 3958443
-0.0023160023 -0.0023869413 0.26200002 5863601
-0.0019054534 -0.0023869413 0.26200002 5993122
-0.0014949047 -0.0023869413 0.26200002 6123675
-0.0010843559 -0.0023869413 0.26200002 6123675
-0.00067380717 -0.0023869413 0.26200002 6517658
-0.00026225357 -0.0023778307 0.26100001 6451093
0.0001467282 -0.0023778307 0.26100001 6319507
0.00055570994 -0.0023778307 0.26100001 6714265
0.00096469169 -0.0023778307 0.26100001 7042715
0.0013684104 -0.0023687202 0.26000002 7042969
0.0017758253 -0.0023687202 0.26000002 6714004
0.0021832399 -0.0023687202 0.26000002 6977176
0.0025906549 -0.0023687202 0.26000002 6911383
0.0029980696 -0.0023687202 0.26000002 6977176
0.0034054846 -0.0023687202 0.26000002 6911383
0.0038128991 -0.0023687202 0.26000002 7042969
0.0042203143 -0.0023687202 0.26000002 6714004
0.0046277288 -0.0023687202 0.26000002 6779797
0.0050351433 -0.0023687202 0.26000002 7240348
0.0054425583 -0.0023687202 0.26000002 7173785
0.0058499733 -0.0023687202 0.26000002 6911383
0.0062573878 -0.0023687202 0.26000002 6911383
0.0066648028 -0.0023687202 0.26000002 6779797
0.0070722178 -0.0023687202 0.26000002 6516625
0.0074796323 -0.0023687202 0.26000002 6582418
0.0078870477 -0.0023687202 0.26000002 6911383
0.0083263628 -0.0023778307 0.26100001 6319246
0.0087353447 -0.0023778307 0.26100001 6385039
0.0091443267 -0.0023778307 0.26100001 6779797
0.0095533086 -0.0023778307 0.26100001 6582418
-0.0023160023 -0.0019763925 0.26200002 6520759
-0.0019054534 -0.0019763925 0.26200002 7110572
-0.0014949047 -0.0019763925 0.26200002 7240611
-0.0010843559 -0.0019763925 0.26200002 7306404
-0.00067123532 -0.0019688488 0.26100001 7371682
-0.00026225357 -0.0019688488 0.26100001 7634336
0.0001467282 -0.0019688488 0.26100001 7568541
0.00055570994 -0.0019688488 0.26100001 7634334
0.00096469169 -0.0019688488 0.26100001 7568541
0.0013684104 -0.0019613055 0.26000002 7765920
0.0017758253 -0.0019613055 0.26000002 7634334
0.0021832399 -0.0019613055 0.26000002 7436955
0.0025906549 -0.0019613055 0.26000002 7502748
0.0029980696 -0.0019613055 0.26000002 7502234
0.0034054846 -0.0019613055 0.26000002 7699613
0.0038128991 -0.0019613055 0.26000002 7765406
0.0042203143 -0.0019613055 0.26000002 7765406
0.0046277288 -0.0019613055 0.26000002 7304855
0.0050351433 -0.0019613055 0.26000002 7633820
0.0054425583 -0.0019613055 0.26000002 7699613
0.0058499733 -0.0019613055 0.26000002 7699613
0.0062573878 -0.0019613055 0.26000002 7765406
0.0066648028 -0.0019613055 0.26000002 7436441
0.0070722178 -0.0019613055 0.26000002 7436441
0.0074796323 -0.0019613055 0.26000002 7502234
0.0078870477 -0.0019613055 0.26000002 7173783
0.0082944613 -0.0019613055 0.26000002 6581646
0.0087018767 -0.0019613055 0.26000002 6844818
0.0091443267 -0.0019688488 0.26100001 6910611
0.0095533086 -0.0019688488 0.26100001 6910611
0.0099622905 -0.0019688488 0.26100001 6976404
-0.0023160023 -0.0015658436 0.26200002 6849724
-0.0019054534 -0.0015658436 0.26200002 7307951
-0.0014949047 -0.0015658436 0.26200002 7700647
-0.0010802171 -0.0015598671 0.26100001 7766440
-0.00067123532 -0.0015598671 0.26100001 7568289
-0.00026225357 -0.0015598671 0.26100001 7699613
0.0001467282 -0.0015598671 0.26100001 7963039
0.00055570994 -0.0015598671 0.26100001 8028832
0.00096099562 -0.0015538906 0.26000002 7765660
0.0013684104 -0.0015538906 0.26000002 7765660
0.0017758253 -0.0015538906 0.26000002 7897246
0.0021832399 -0.0015538906 0.26000002 7897244
0.0025906549 -0.0015538906 0.26000002 8489381
0.0029980696 -0.0015538906 0.26000002 7568279
0.0034054846 -0.0015538906 0.26000002 8028830
0.0038128991 -0.0015538906 0.26000002 8160416
0.0042203143 -0.0015538906 0.26000002 8094623
0.0046277288 -0.0015538906 0.26000002 7765658
0.0050351433 -0.0015538906 0.26000002 7634072
0.0054425583 -0.0015538906 0.26000002 7765145
0.0058499733 -0.0015538906 0.26000002 8094110
0.0062573878 -0.0015538906 0.26000002 8028317
0.0066648028 -0.0015538906 0.26000002 7304594
0.0070722178 -0.0015538906 0.26000002 7633559
0.0074796323 -0.0015538906 0.26000002 7765145
0.0078870477 -0.0015538906 0.26000002 7765145
0.0082944613 -0.0015538906 0.26000002 7633559
0.0087018767 -0.0015538906 0.26000002 7962524
0.0091092912 -0.0015538906 0.26000002 7765145
0.0095167058 -0.0015538906 0.26000002 7370387
0.0099622905 -0.0015598671 0.26100001 7501973
-0.0023160023 -0.0011552948 0.26200002 7507140
-0.0018981806 -0.0011508852 0.26100001 7965363
-0.0014891989 -0.0011508852 0.26100001 8227243
-0.0010802171 -0.0011508852 0.26100001 7898278
-0.00067123532 -0.0011508852 0.26100001 8094371
-0.00026225357 -0.0011508852 0.26100001 7963037
0.0001467282 -0.0011508852 0.26100001 8160416
0.00055358082 -0.0011464758 0.26000002 8160416
0.00096099562 -0.0011464758 0.26000002 7962522
0.0013684104 -0.0011464758 0.26000002 7830936
0.0017758253 -0.0011464758 0.26000002 7633557
0.0021832399 -0.0011464758 0.26000002 8685729
0.0025906549 -0.0011464758 0.26000002 8686245
0.0029865385 -0.0011420662 0.259 8686245
0.0033923863 -0.0011420662 0.259 8883624
0.0037982338 -0.0011420662 0.259 8488866
0.0042040818 -0.0011420662 0.259 8620452
0.0046099299 -0.0011420662 0.259 8028315
0.005015777 -0.0011420662 0.259 8028315
0.0054425583 -0.0011464758 0.26000002 8159901
0.0058499733 -0.0011464758 0.26000002 8225694
0.0062573878 -0.0011464758 0.26000002 8225694
0.0066648028 -0.0011464758 0.26000002 8094108
0.0070722178 -0.0011464758 0.26000002 8291487
0.0074796323 -0.0011464758 0.26000002 8291487
0.0078870477 -0.0011464758 0.26000002 8093338
0.0082944613 -0.0011464758 0.26000002 8093338
0.0087018767 -0.0011464758 0.26000002 8159131
0.0091092912 -0.0011464758 0.26000002 8159131
0.0095167058 -0.0011464758 0.26000002 8093338
0.0099241212 -0.0011464758 0.26000002 7764373
-0.0018981806 -0.0007419035 0.26100001 8228022
-0.0014891989 -0.0007419035 0.26100001 8292266
-0.0010802171 -0.0007419035 0.26100001 8094887
-0.00067123532 -0.0007419035 0.26100001 8423588
-0.00026225357 -0.0007419035 0.26100001 8554659
0.00014616603 -0.00073906098 0.26000002 8554913
0.00055358082 -0.00073906098 0.26000002 8423327
0.00096099562 -0.00073906098 0.26000002 8423327
0.0013684104 -0.00073906098 0.26000002 8160155
0.0017758253 -0.00073906098 0.26000002 8225948
0.0021748429 -0.00073621841 0.259 8751520
0.0025806907 -0.00073621841 0.259 8685727
0.0029865385 -0.00073621841 0.259 8751007
0.0033923863 -0.00073621841 0.259 8816800
0.0037982338 -0.00073621841 0.259 8685214
0.0042040818 -0.00073621841 0.259 8619421
0.0062333206 -0.00073621841 0.259 8751007
0.0066391686 -0.00073621841 0.259 8685214
0.0070450162 -0.00073621841 0.259 8422042
0.0074508642 -0.00073621841 0.259 8487835
0.0078870477 -0.00073906098 0.26000002 9211558
0.0082944613 -0.00073906098 0.26000002 8619421
0.0087018767 -0.00073906098 0.26000002 8422042
0.0091092912 -0.00073906098 0.26000002 8487835
0.0095167058 -0.00073906098 0.26000002 8882593
0.0099241212 -0.00073906098 0.26000002 8422042
0.00055358082 -0.00033164621 0.26000002 8620704
0.00096099562 -0.00033164621 0.26000002 8489118
0.0013684104 -0.00033164621 0.26000002 8291739
0.0017689951 -0.00033037062 0.259 8817567
0.0021748429 -0.00033037062 0.259 8883360
0.0025806907 -0.00033037062 0.259 8883360
0.0029865385 -0.00033037062 0.259 8882847
0.0033923863 -0.00033037062 0.259 8882847
0.0037982338 -0.00033037062 0.259 8619675
0.0041878503 -0.00032909508 0.25800002 8751261
0.0070450162 -0.00033037062 0.259 8422296
0.0074508642 -0.00033037062 0.259 8619675
0.0078567117 -0.00033037062 0.259 8817054
0.0082625598 -0.00033037062 0.259 8751261
0.0086684069 -0.00033037062 0.259 8619675
0.0091092912 -0.00033164621 0.26000002 8619675
0.0095167058 -0.00033164621 0.26000002 8817054
0.0099241212 -0.00033164621 0.26000002 8751261
-0.00066866359 7.5768607e-05 0.26000002 9146280
-0.00026124876 7.5768607e-05 0.26000002 9146532
0.00014616603 7.5768607e-05 0.26000002 9080739
0.00055358082 7.5768607e-05 0.26000002 8883360
0.00096099562 7.5768607e-05 0.26000002 8422296
0.0013631473 7.5477183e-05 0.259 8948638
0.0017689951 7.5477183e-05 0.259 9146017
0.0021748429 7.5477183e-05 0.259 9343396
0.0025806907 7.5477183e-05 0.259 9343396
0.0029750075 7.5185773e-05 0.25800002 9671591
0.0033792884 7.5185773e-05 0.25800002 9737384
0.003783569 7.5185773e-05 0.25800002 9803177
0.0074508642 7.5477183e-05 0.259 8816282
0.0078567117 7.5477183e-05 0.259 8882075
0.0082625598 7.5477183e-05 0.259 9079454
0.0086684069 7.5477183e-05 0.259 9079454
0.0090742549 7.5477183e-05 0.259 8882075
-0.00026024395 0.000481325 0.259 9211812
0.0021664458 0.0004794666 0.25800002 9540005
0.0025707267 0.0004794666 0.25800002 9671591
0.0029750075 0.0004794666 0.25800002 9737384
0.0033792884 0.0004794666 0.25800002 9803175
0.003783569 0.0004794666 0.25800002 9803175
0.0041878503 0.0004794666 0.25800002 9540003
0.0074220966 0.0004794666 0.25800002 8947868
0.0078263776 0.0004794666 0.25800002 9211040
0.0082625598 0.000481325 0.259 9407649
0.0086684069 0.000481325 0.259 9670819
-0.001063662 0.00088032201 0.257 9671591
0.0025707267 0.00088374742 0.25800002 10000038
0.0029750075 0.00088374742 0.25800002 10065831
0.0033661902 0.00088032201 0.257 9934245
0.0037689039 0.00088032201 0.257 9802659
0.0041716178 0.00088032201 0.257 9671073
0.007017816 0.00088374742 0.25800002 9341854
0.0074220966 0.00088374742 0.25800002 9078682
0.0078263776 0.00088374742 0.25800002 9407647
0.0082306582 0.00088374742 0.25800002 9605026
0.0086349389 0.00088374742 0.25800002 9867941
-0.001861817 0.0012780436 0.25600001 9870269
-0.0014606701 0.0012780436 0.25600001 9540777
-0.0010595233 0.0012780436 0.25600001 9999784
0.0025607625 0.0012830358 0.257 9802657
0.0029634763 0.0012830358 0.257 9802657
0.0033661902 0.0012830358 0.257 10065829
0.0037689039 0.0012830358 0.257 10131622
0.0041716178 0.0012830358 0.257 9670814
0.0045743319 0.0012830358 0.257 9868193
0.0049770451 0.0012830358 0.257 9735837
0.0053797592 0.0012830358 0.257 10064802
0.0057824729 0.0012830358 0.257 10196388
0.006185187 0.0012830358 0.257 10131365
0.0065879007 0.0012830358 0.257 9933986
0.007017816 0.0012880283 0.25800002 9933986
0.0074220966 0.0012880283 0.25800002 9999779
0.0078263776 0.0012880283 0.25800002 9868193
0.0082306582 0.0012880283 0.25800002 10065572
-0.0022629639 0.0016791903 0.25600001 12106715
-0.001861817 0.0016791903 0.25600001 11119820
-0.0014606701 0.0016791903 0.25600001 9868200
-0.0010595233 0.0016791903 0.25600001 9736607
0.0025607625 0.0016857496 0.257 9934243
0.0029634763 0.0016857496 0.257 9539485
0.0033661902 0.0016857496 0.257 10394791
0.0037689039 0.0016857496 0.257 10197412
0.0041716178 0.0016857496 0.257 9473689
0.0045743319 0.0016857496 0.257 9867677
0.0049770451 0.0016857496 0.257 9867677
0.0053797592 0.0016857496 0.257 10525607
0.0057824729 0.0016857496 0.257 10657193
0.006185187 0.0016857496 0.257 10525607
0.0065879007 0.0016857496 0.257 10196642
0.0069906143 0.0016857496 0.257 10262435
0.0073933285 0.0016857496 0.257 10525607
0.0077960421 0.0016857496 0.257 10130849
0.0081987558 0.0016857496 0.257 10788779
-0.0022629639 0.0020803374 0.25600001 12763360
-0.001861817 0.0020803374 0.25600001 10591148
-0.0014606701 0.0020803374 0.25600001 10854320
-0.0010595233 0.0020803374 0.25600001 10854572
-0.00065837643 0.0020803374 0.25600001 10986928
-0.00025722955 0.0020803374 0.25600001 10855342
0.00014391732 0.0020803374 0.25600001 10723754
0.00054506416 0.0020803374 0.25600001 10723754
0.0025507985 0.0020803374 0.25600001 10197410
0.0029519454 0.0020803374 0.25600001 10723754
0.0033661902 0.0020884636 0.257 11051949
0.0037689039 0.0020884636 0.257 10722984
0.0041716178 0.0020884636 0.257 10525605
0.0045743319 0.0020884636 0.257 11644086
0.0049770451 0.0020884636 0.257 10788264
0.0053797592 0.0020884636 0.257 10722471
0.0057824729 0.0020884636 0.257 10788264
0.006185187 0.0020884636 0.257 10656678
0.0065879007 0.0020884636 0.257 10590885
0.0069906143 0.0020884636 0.257 10656678
0.0073933285 0.0020884636 0.257 10853287
0.0077960421 0.0020884636 0.257 11183022
0.0081987558 0.0020884636 0.257 11248815
-0.0026641109 0.0024814841 0.25600001 9017549
-0.0022629639 0.0024814841 0.25600001 13485284
-0.001861817 0.0024814841 0.25600001 11380403
-0.0014606701 0.0024814841 0.25600001 11380403
-0.0010595233 0.0024814841 0.25600001 11051434
-0.00065837643 0.0024814841 0.25600001 11183533
-0.00025722955 0.0024814841 0.25600001 11117740
0.00014391732 0.0024814841 0.25600001 10921131
0.00054506416 0.0024814841 0.25600001 10723752
0.00094621105 0.0024814841 0.25600001 10854568
0.001347358 0.0024814841 0.25600001 11051947
0.0017485048 0.0024814841 0.25600001 10986154
0.0021496515 0.0024814841 0.25600001 10657189
0.0025507985 0.0024814841 0.25600001 10591396
0.0029519454 0.0024814841 0.25600001 11183533
0.0033530924 0.0024814841 0.25600001 11183533
0.0037542391 0.0024814841 0.25600001 11117740
0.0041716178 0.0024911773 0.257 11183787
0.0045743319 0.0024911773 0.257 11907510
0.0049770451 0.0024911773 0.257 10722469
0.0053797592 0.0024911773 0.257 10788262
0.0057824729 0.0024911773 0.257 10788262
0.006185187 0.0024911773 0.257 10722469
0.0065879007 0.0024911773 0.257 10722469
0.0069906143 0.0024911773 0.257 10853285
0.0073933285 0.0024911773 0.257 11182250
0.0077960421 0.0024911773 0.257 11313836
0.0081987558 0.0024911773 0.257 11313836
0.0086014699 0.0024911773 0.257 11117227
-0.0026641109 0.002882631 0.25600001 10135001
-0.0022629639 0.002882631 0.25600001 13748710
-0.001861817 0.002882631 0.25600001 12892870
-0.0014606701 0.002882631 0.25600001 10984873
-0.0010595233 0.002882631 0.25600001 11379368
-0.00065837643 0.002882631 0.25600001 11511467
