# .PCD v0.7 - Point Cloud Data file format
VERSION 0.7
FIELDS x y z rgb
SIZE 4 4 4 4
TYPE F F F U
COUNT 1 1 1 1
WIDTH 1096
HEIGHT 1
VIEWPOINT 0 0 0 1 0 0 0
POINTS 1096
DATA ascii
-0.0037372175 -0.015921568 0.27600002 5941655
-0.0033047311 -0.015921568 0.27600002 6204827
-0.0028618376 -0.015863881 0.27500001 6008218
-0.0024309182 -0.015863881 0.27500001 6271388
-0.0019999987 -0.015863881 0.27500001 6797732
-0.0015690792 -0.015863881 0.27500001 6403228
-0.0011381598 -0.015863881 0.27500001 7257254
-0.00070724031 -0.015863881 0.27500001 8441528
-0.00027632079 -0.015863881 0.27500001 7915184
0.00015459867 -0.015863881 0.27500001 7849391
0.00058551814 -0.015863881 0.27500001 7849389
0.0010164375 -0.015863881 0.27500001 8441526
0.0014473571 -0.015863881 0.27500001 7585703
0.0018782766 -0.015863881 0.27500001 6467484
0.0023091959 -0.015863881 0.27500001 7389099
0.0027401156 -0.015863881 0.27500001 7323306
0.0031710351 -0.015863881 0.27500001 6533792
0.0036019546 -0.015863881 0.27500001 6073241
0.0040475391 -0.015921568 0.27600002 6336413
0.0044800257 -0.015921568 0.27600002 5744276
0.0049125124 -0.015921568 0.27600002 5416079
0.0053449986 -0.015921568 0.27600002 6731939
-0.012431827 -0.015545201 0.27700001 8282
-0.011954461 -0.015489083 0.27600002 8282
-0.011521975 -0.015489083 0.27600002 8026
-0.011089488 -0.015489083 0.27600002 8026
-0.010657001 -0.015489083 0.27600002 8028
-0.010224515 -0.015489083 0.27600002 7774
-0.009792028 -0.015489083 0.27600002 8026
-0.0093595423 -0.015489083 0.27600002 8026
-0.0089270556 -0.015489083 0.27600002 12611
-0.008494569 -0.015489083 0.27600002 6802363
-0.0080620823 -0.015489083 0.27600002 5091745
-0.0076295957 -0.015489083 0.27600002 6405031
-0.0071971091 -0.015489083 0.27600002 7720121
-0.0067646229 -0.015489083 0.27600002 6271905
-0.0063321362 -0.015489083 0.27600002 6206112
-0.0058996496 -0.015489083 0.27600002 6863527
-0.0054671634 -0.015489083 0.27600002 7982008
-0.0050346772 -0.015489083 0.27600002 7718836
-0.0046021906 -0.015489083 0.27600002 7324076
-0.0041697039 -0.015489083 0.27600002 7258283
-0.0037372175 -0.015489083 0.27600002 7850420
-0.0032927573 -0.015432961 0.27500001 6864040
-0.0028618376 -0.015432961 0.27500001 8048314
-0.0024309182 -0.015432961 0.27500001 6140315
-0.0019999987 -0.015432961 0.27500001 7850933
-0.0015690792 -0.015432961 0.27500001 7389869
-0.0011381598 -0.015432961 0.27500001 7784881
-0.00070724031 -0.015432961 0.27500001 8771006
-0.00027632079 -0.015432961 0.27500001 7849904
0.00015459867 -0.015432961 0.27500001 7520939
0.00058551814 -0.015432961 0.27500001 7849904
0.0010164375 -0.015432961 0.27500001 6863009
0.0014473571 -0.015432961 0.27500001 11402211
0.0018782766 -0.015432961 0.27500001 10217939
0.0023091959 -0.015432961 0.27500001 8375996
0.0027401156 -0.015432961 0.27500001 6337183
0.0031710351 -0.015432961 0.27500001 5942425
0.0036019546 -0.015432961 0.27500001 6995113
0.004032874 -0.015432961 0.27500001 7718836
0.0044800257 -0.015489083 0.27600002 6337183
0.0049125124 -0.015489083 0.27600002 5152909
0.0053449986 -0.015489083 0.27600002 7850422
-0.012819435 -0.015056596 0.27600002 8282
-0.012386948 -0.015056596 0.27600002 8282
-0.011954461 -0.015056596 0.27600002 8282
-0.011521975 -0.015056596 0.27600002 8282
-0.011089488 -0.015056596 0.27600002 8282
-0.010657001 -0.015056596 0.27600002 8028
-0.009792028 -0.015056596 0.27600002 8028
-0.0093595423 -0.015056596 0.27600002 8028
-0.0089270556 -0.015056596 0.27600002 12869
-0.008494569 -0.015056596 0.27600002 6606013
-0.0080620823 -0.015056596 0.27600002 5158567
-0.0076295957 -0.015056596 0.27600002 6602413
-0.0071971091 -0.015056596 0.27600002 8510153
-0.0067646229 -0.015056596 0.27600002 6996398
-0.0063321362 -0.015056596 0.27600002 6141089
-0.0058996496 -0.015056596 0.27600002 6797734
-0.0054671634 -0.015056596 0.27600002 10417114
-0.0050346772 -0.015056596 0.27600002 10219735
-0.0045855157 -0.015002042 0.27500001 9101254
-0.004154596 -0.015002042 0.27500001 8048566
-0.0037236768 -0.015002042 0.27500001 8179898
-0.0032927573 -0.015002042 0.27500001 7785140
-0.0028618376 -0.015002042 0.27500001 8640449
-0.0024309182 -0.015002042 0.27500001 6929831
-0.0019999987 -0.015002042 0.27500001 8179898
-0.0015690792 -0.015002042 0.27500001 7324589
-0.0011381598 -0.015002042 0.27500001 8048312
-0.00070724031 -0.015002042 0.27500001 8377018
-0.00027632079 -0.015002042 0.27500001 8245432
0.00015459867 -0.015002042 0.27500001 7324330
0.00058551814 -0.015002042 0.27500001 7718834
0.0010164375 -0.015002042 0.27500001 7389869
0.0014473571 -0.015002042 0.27500001 9824210
0.0018782766 -0.015002042 0.27500001 8574143
0.0023091959 -0.015002042 0.27500001 8771524
0.0027401156 -0.015002042 0.27500001 8771524
0.0031710351 -0.015002042 0.27500001 7587763
0.0036019546 -0.015002042 0.27500001 7456177
0.0040475391 -0.015056596 0.27600002 7390384
0.0044800257 -0.015056596 0.27600002 7193005
0.0049125124 -0.015056596 0.27600002 7785142
0.0053449986 -0.015056596 0.27600002 9166795
-0.013251919 -0.014624109 0.27600002 8282
-0.012819435 -0.014624109 0.27600002 8282
-0.012386948 -0.014624109 0.27600002 8282
-0.011954461 -0.014624109 0.27600002 8282
-0.011521975 -0.014624109 0.27600002 8026
-0.011089488 -0.014624109 0.27600002 8026
-0.010657001 -0.014624109 0.27600002 8028
-0.010224515 -0.014624109 0.27600002 7774
-0.009792028 -0.014624109 0.27600002 8028
-0.0093595423 -0.014624109 0.27600002 8028
-0.0089270556 -0.014624109 0.27600002 12359
-0.008494569 -0.014624109 0.27600002 4636852
-0.0080620823 -0.014624109 0.27600002 4439473
-0.0076295957 -0.014624109 0.27600002 5290153
-0.0071971091 -0.014624109 0.27600002 5221791
-0.0067646229 -0.014624109 0.27600002 5813928
-0.0063321362 -0.014624109 0.27600002 5616549
-0.0058996496 -0.014624109 0.27600002 5484702
-0.0054671634 -0.014624109 0.27600002 8313285
-0.0050164354 -0.014571123 0.27500001 9102801
-0.0045855157 -0.014571123 0.27500001 7063216
-0.004154596 -0.014571123 0.27500001 5089944
-0.0037236768 -0.014571123 0.27500001 4432016
-0.0032927573 -0.014571123 0.27500001 4892567
-0.0028618376 -0.014571123 0.27500001 7720119
-0.0024309182 -0.014571123 0.27500001 6272673
-0.0019999987 -0.014571123 0.27500001 6601638
-0.0015633736 -0.014518137 0.27400002 7325361
-0.001134021 -0.014518137 0.27400002 7850935
-0.00070466852 -0.014518137 0.27400002 8772037
-0.00027531601 -0.014518137 0.27400002 9166795
0.0001540365 -0.014518137 0.27400002 7127212
0.00058338902 -0.014518137 0.27400002 7456177
0.0010164375 -0.014571123 0.27500001 7258798
0.0014473571 -0.014571123 0.27500001 6535075
0.0018782766 -0.014571123 0.27500001 7456179
0.0023091959 -0.014571123 0.27500001 6929835
0.0027401156 -0.014571123 0.27500001 6271905
0.0031710351 -0.014571123 0.27500001 6995628
0.0036019546 -0.014571123 0.27500001 6995628
0.0040475391 -0.014624109 0.27600002 7193007
0.0044800257 -0.014624109 0.27600002 7324593
-0.013684406 -0.014191623 0.27600002 8282
-0.013251919 -0.014191623 0.27600002 8282
-0.012819435 -0.014191623 0.27600002 8282
-0.012386948 -0.014191623 0.27600002 8282
-0.011954461 -0.014191623 0.27600002 8282
-0.011521975 -0.014191623 0.27600002 8282
-0.011089488 -0.014191623 0.27600002 8282
-0.010657001 -0.014191623 0.27600002 8028
-0.010224515 -0.014191623 0.27600002 7774
-0.009792028 -0.014191623 0.27600002 8028
-0.0093595423 -0.014191623 0.27600002 8028
-0.0089270556 -0.014191623 0.27600002 9793
-0.008494569 -0.014191623 0.27600002 1218959
-0.0080620823 -0.014191623 0.27600002 166271
-0.0076295957 -0.014191623 0.27600002 3450009
-0.0071971091 -0.014191623 0.27600002 4041119
-0.0067646229 -0.014191623 0.27600002 3974041
-0.0063091931 -0.014140203 0.27500001 3974041
-0.0058782739 -0.014140203 0.27500001 3315338
-0.0054473542 -0.014140203 0.27500001 4631198
-0.0050164354 -0.014140203 0.27500001 5025956
-0.0045855157 -0.014140203 0.27500001 4170645
-0.004154596 -0.014140203 0.27500001 3578767
-0.0037236768 -0.014140203 0.27500001 1210989
-0.0032927573 -0.014140203 0.27500001 2263677
-0.002851431 -0.014088784 0.27400002 5486764
-0.0024220785 -0.014088784 0.27400002 5354919
-0.001992726 -0.014088784 0.27400002 4960161
-0.0015633736 -0.014088784 0.27400002 4433817
-0.001134021 -0.014088784 0.27400002 3710094
-0.00070466852 -0.014088784 0.27400002 4236438
-0.00027531601 -0.014088784 0.27400002 3841680
0.0001540365 -0.014088784 0.27400002 4039059
0.00058338902 -0.014088784 0.27400002 3578767
0.0010127415 -0.014088784 0.27400002 2657665
0.0014420941 -0.014088784 0.27400002 3315595
0.0018782766 -0.014140203 0.27500001 5025956
0.0023091959 -0.014140203 0.27500001 3512717
0.0027401156 -0.014140203 0.27500001 3315338
0.0031710351 -0.014140203 0.27500001 2855044
0.0036019546 -0.014140203 0.27500001 2065528
0.0040475391 -0.014191623 0.27600002 1341805
0.0044800257 -0.014191623 0.27600002 4828834
0.0049125124 -0.014191623 0.27600002 5552298
0.0053449986 -0.014191623 0.27600002 5749677
0.0057774847 -0.014191623 0.27600002 3712924
-0.013684406 -0.013759136 0.27600002 8280
-0.013251919 -0.013759136 0.27600002 8280
-0.012819435 -0.013759136 0.27600002 8280
-0.012386948 -0.013759136 0.27600002 8280
-0.011954461 -0.013759136 0.27600002 8280
-0.011521975 -0.013759136 0.27600002 8282
-0.011089488 -0.013759136 0.27600002 8282
-0.010657001 -0.013759136 0.27600002 8028
-0.010224515 -0.013759136 0.27600002 7774
-0.009792028 -0.013759136 0.27600002 8028
-0.0093595423 -0.013759136 0.27600002 8028
-0.0089270556 -0.013759136 0.27600002 10054
-0.0084637906 -0.013709283 0.27500001 29805
-0.0080328714 -0.013709283 0.27500001 31347
-0.0076295957 -0.013759136 0.27600002 29801
-0.0071971091 -0.013759136 0.27600002 1149825
-0.0067401128 -0.013709283 0.27500001 95595
-0.0063091931 -0.013709283 0.27500001 687732
-0.0058782739 -0.013709283 0.27500001 2265481
-0.0054473542 -0.013709283 0.27500001 1344379
-0.0050164354 -0.013709283 0.27500001 28519
-0.0045855157 -0.013709283 0.27500001 2462860
-0.004154596 -0.013709283 0.27500001 2529423
-0.0037101363 -0.013659433 0.27400002 556146
-0.0032807838 -0.013659433 0.27400002 687732
-0.002851431 -0.013659433 0.27400002 2397837
-0.0024220785 -0.013659433 0.27400002 2068356
-0.001992726 -0.013659433 0.27400002 2265478
-0.0015576677 -0.01360958 0.273 1870720
-0.0011298822 -0.01360958 0.273 1804927
-0.00070209673 -0.01360958 0.273 1739134
-0.0002743112 -0.01360958 0.273 1804927
0.0001540365 -0.013659433 0.27400002 1212790
0.00058338902 -0.013659433 0.27400002 1607294
0.0010127415 -0.013659433 0.27400002 1278329
0.0014420941 -0.013659433 0.27400002 1804673
0.0018714466 -0.013659433 0.27400002 3120533
0.0023007991 -0.013659433 0.27400002 3317912
0.0027401156 -0.013709283 0.27500001 3054740
0.0031710351 -0.013709283 0.27500001 1936259
0.0036019546 -0.013709283 0.27500001 2002309
0.004032874 -0.013709283 0.27500001 291691
0.0044800257 -0.013759136 0.27600002 27748
0.0049125124 -0.013759136 0.27600002 1673598
0.0053449986 -0.013759136 0.27600002 4111023
-0.013684406 -0.01332665 0.27600002 8534
-0.013251919 -0.01332665 0.27600002 8534
-0.012819435 -0.01332665 0.27600002 8280
-0.012386948 -0.01332665 0.27600002 8280
-0.011954461 -0.01332665 0.27600002 8280
-0.011521975 -0.01332665 0.27600002 8282
-0.011089488 -0.01332665 0.27600002 8282
-0.010657001 -0.01332665 0.27600002 8282
-0.010224515 -0.01332665 0.27600002 8028
-0.009792028 -0.01332665 0.27600002 8026
-0.0093595423 -0.01332665 0.27600002 8026
-0.0088947108 -0.013278364 0.27500001 9802
-0.0084637906 -0.013278364 0.27500001 11572
-0.0080328714 -0.013278364 0.27500001 12600
-0.0076019517 -0.013278364 0.27500001 12076
-0.0071710325 -0.013278364 0.27500001 12074
-0.0067401128 -0.013278364 0.27500001 19269
-0.0063091931 -0.013278364 0.27500001 21839
-0.0058782739 -0.013278364 0.27500001 20553
-0.0054473542 -0.013278364 0.27500001 16952
-0.0050164354 -0.013278364 0.27500001 21064
-0.0045855157 -0.013278364 0.27500001 15924
-0.004154596 -0.013278364 0.27500001 15155
-0.0037101363 -0.01323008 0.27400002 13098
-0.0032807838 -0.01323008 0.27400002 16439
-0.002851431 -0.01323008 0.27400002 21836
-0.0024132386 -0.013181794 0.273 29287
-0.0015576677 -0.013181794 0.273 12582
-0.0011298822 -0.013181794 0.273 22605
-0.00070209673 -0.013181794 0.273 12583
-0.0002743112 -0.013181794 0.273 21579
0.00015347432 -0.013181794 0.273 24406
0.00058125984 -0.013181794 0.273 25949
0.0010090453 -0.013181794 0.273 18239
0.0014420941 -0.01323008 0.27400002 17468
0.0018714466 -0.01323008 0.27400002 24665
0.0023007991 -0.01323008 0.27400002 24921
0.0027301516 -0.01323008 0.27400002 18239
0.0031710351 -0.013278364 0.27500001 24149
0.0036019546 -0.013278364 0.27500001 22349
0.004032874 -0.013278364 0.27500001 15153
0.0044800257 -0.01332665 0.27600002 32629
0.0049125124 -0.01332665 0.27600002 26975
0.005364364 -0.013374934 0.27700001 19008
-0.013251919 -0.012894163 0.27600002 8534
-0.012865881 -0.012940881 0.27700001 8534
-0.012431827 -0.012940881 0.27700001 8534
-0.011954461 -0.012894163 0.27600002 8280
-0.011521975 -0.012894163 0.27600002 8280
-0.011089488 -0.012894163 0.27600002 8280
-0.010657001 -0.012894163 0.27600002 8282
-0.010224515 -0.012894163 0.27600002 8028
-0.009792028 -0.012894163 0.27600002 8028
-0.00932563 -0.012847444 0.27500001 8028
-0.0089270556 -0.012894163 0.27600002 9804
-0.0084637906 -0.012847444 0.27500001 11068
-0.0080328714 -0.012847444 0.27500001 11068
-0.0076019517 -0.012847444 0.27500001 11574
-0.0071710325 -0.012847444 0.27500001 11825
-0.0067401128 -0.012847444 0.27500001 13876
-0.0063091931 -0.012847444 0.27500001 11820
-0.0058782739 -0.012847444 0.27500001 16187
-0.0054473542 -0.012847444 0.27500001 12585
-0.0050164354 -0.012847444 0.27500001 12842
-0.0045855157 -0.012847444 0.27500001 11818
-0.0041394886 -0.012800727 0.27400002 11818
-0.0037101363 -0.012800727 0.27400002 12331
-0.0032807838 -0.012800727 0.27400002 12074
-0.0028410242 -0.012754008 0.273 13359
-0.0019854531 -0.012754008 0.273 14641
-0.0015576677 -0.012754008 0.273 13870
-0.0011298822 -0.012754008 0.273 19011
-0.00070209673 -0.012754008 0.273 12586
-0.0002743112 -0.012754008 0.273 17983
0.00015347432 -0.012754008 0.273 18497
0.00058125984 -0.012754008 0.273 19784
0.0010090453 -0.012754008 0.273 11561
0.0014368308 -0.012754008 0.273 15416
0.0018714466 -0.012800727 0.27400002 18757
0.0023007991 -0.012800727 0.27400002 23382
0.0027301516 -0.012800727 0.27400002 14901
0.0031595042 -0.012800727 0.27400002 20041
0.0036019546 -0.012847444 0.27500001 15928
0.004032874 -0.012847444 0.27500001 11816
0.0044637937 -0.012847444 0.27500001 14385
0.0049125124 -0.012894163 0.27600002 16184
-0.013783569 -0.012551979 0.27800003 8280
-0.013347948 -0.012551979 0.27800003 8280
-0.012912328 -0.012551979 0.27800003 8280
-0.012476708 -0.012551979 0.27800003 8280
-0.012041088 -0.012551979 0.27800003 8280
-0.01156372 -0.012506827 0.27700001 8280
-0.011129667 -0.012506827 0.27700001 8280
-0.010657001 -0.012461677 0.27600002 8282
-0.010224515 -0.012461677 0.27600002 8282
-0.009792028 -0.012461677 0.27600002 8282
-0.0093595423 -0.012461677 0.27600002 8282
-0.0088947108 -0.012416525 0.27500001 9550
-0.0084637906 -0.012416525 0.27500001 10562
-0.0080328714 -0.012416525 0.27500001 10562
-0.0076019517 -0.012416525 0.27500001 10558
-0.0071710325 -0.012416525 0.27500001 10812
-0.0067401128 -0.012416525 0.27500001 10810
-0.0063091931 -0.012416525 0.27500001 10810
-0.0058782739 -0.012416525 0.27500001 11318
-0.0054473542 -0.012416525 0.27500001 11574
-0.0049981941 -0.012371374 0.27400002 11574
-0.0045688413 -0.012371374 0.27400002 11574
-0.0041394886 -0.012371374 0.27400002 11574
-0.0037101363 -0.012371374 0.27400002 11576
-0.0032688098 -0.012326223 0.273 11574
-0.0028410242 -0.012326223 0.273 11574
-0.0024132386 -0.012326223 0.273 11830
-0.0019854531 -0.012326223 0.273 13115
-0.0015519621 -0.012281072 0.27200001 11830
-0.0011257435 -0.012281072 0.27200001 11828
-0.00069952494 -0.012281072 0.27200001 11828
-0.00027330639 -0.012281072 0.27200001 12851
0.00015347432 -0.012326223 0.273 21332
0.00058125984 -0.012326223 0.273 22104
0.0010090453 -0.012326223 0.273 11570
0.0014368308 -0.012326223 0.273 11570
0.0018646164 -0.012326223 0.273 12078
0.0022924019 -0.012326223 0.273 12336
0.0027301516 -0.012371374 0.27400002 11822
0.0031595042 -0.012371374 0.27400002 12079
0.0036019546 -0.012416525 0.27500001 12334
0.004032874 -0.012416525 0.27500001 12334
0.0044637937 -0.012416525 0.27500001 12334
-0.01388273 -0.012203526 0.28 8280
-0.013443976 -0.012203526 0.28 8280
-0.012958775 -0.012159942 0.27900001 8534
-0.012476708 -0.012116359 0.27800003 8280
-0.012041088 -0.012116359 0.27800003 8280
-0.011605468 -0.012116359 0.27800003 8280
-0.011129667 -0.012072774 0.27700001 8280
-0.010657001 -0.012029191 0.27600002 8282
-0.010224515 -0.012029191 0.27600002 8282
-0.009792028 -0.012029191 0.27600002 8026
-0.00932563 -0.011985606 0.27500001 8026
-0.0088947108 -0.011985606 0.27500001 9550
-0.0084637906 -0.011985606 0.27500001 10308
-0.0080328714 -0.011985606 0.27500001 10308
-0.0076019517 -0.011985606 0.27500001 10558
-0.0071710325 -0.011985606 0.27500001 10812
-0.0067401128 -0.011985606 0.27500001 10812
-0.0063091931 -0.011985606 0.27500001 10812
-0.0058568986 -0.011942022 0.27400002 10810
-0.0054275459 -0.011942022 0.27400002 10810
-0.0049981941 -0.011942022 0.27400002 10810
-0.0045688413 -0.011942022 0.27400002 10810
-0.0041394886 -0.011942022 0.27400002 11066
-0.0036965953 -0.011898438 0.273 11066
-0.0032688098 -0.011898438 0.273 11066
-0.0028410242 -0.011898438 0.273 11066
-0.0024043992 -0.011854853 0.27200001 11322
-0.0019781806 -0.011854853 0.27200001 11576
-0.0015519621 -0.011854853 0.27200001 11576
-0.0011257435 -0.011854853 0.27200001 11576
-0.00069952494 -0.011854853 0.27200001 11574
-0.00027330639 -0.011854853 0.27200001 11830
0.00015291215 -0.011854853 0.27200001 12344
0.00058125984 -0.011898438 0.273 12343
0.0010090453 -0.011898438 0.273 11572
0.0014368308 -0.011898438 0.273 11572
0.0018646164 -0.011898438 0.273 11574
0.0022924019 -0.011898438 0.273 11318
0.0027201874 -0.011898438 0.273 11318
0.0031595042 -0.011942022 0.27400002 11318
-0.010657001 -0.011596704 0.27600002 8282
-0.010224515 -0.011596704 0.27600002 8028
-0.009792028 -0.011596704 0.27600002 8028
-0.0080328714 -0.011554686 0.27500001 10304
-0.0076019517 -0.011554686 0.27500001 10304
-0.0071710325 -0.011554686 0.27500001 10300
-0.0067156036 -0.01151267 0.27400002 10552
-0.0062862509 -0.01151267 0.27400002 10552
-0.0058568986 -0.01151267 0.27400002 10296
-0.0054275459 -0.01151267 0.27400002 10296
-0.0049981941 -0.01151267 0.27400002 10296
-0.0045688413 -0.01151267 0.27400002 10296
-0.0041394886 -0.01151267 0.27400002 10294
-0.0036965953 -0.011470651 0.273 10554
-0.0032688098 -0.011470651 0.273 10554
-0.0028306178 -0.011428636 0.27200001 10554
-0.0024043992 -0.011428636 0.27200001 10554
-0.0019781806 -0.011428636 0.27200001 10810
-0.0015519621 -0.011428636 0.27200001 10810
-0.0011257435 -0.011428636 0.27200001 11064
-0.00069952494 -0.011428636 0.27200001 11064
-0.00027330639 -0.011428636 0.27200001 11064
0.00015291215 -0.011428636 0.27200001 11064
0.00057913072 -0.011428636 0.27200001 11064
0.0010053492 -0.011428636 0.27200001 11064
0.0014368308 -0.011470651 0.273 11064
0.0018646164 -0.011470651 0.273 11062
0.0022924019 -0.011470651 0.273 11062
0.0027201874 -0.011470651 0.273 10806
0.003147973 -0.011470651 0.273 10806
-0.0075743087 -0.011083317 0.27400002 10048
-0.0071449564 -0.011083317 0.27400002 10044
-0.0067156036 -0.011083317 0.27400002 10296
-0.0062862509 -0.011083317 0.27400002 10296
-0.0058568986 -0.011083317 0.27400002 10296
-0.0054275459 -0.011083317 0.27400002 10294
-0.0049981941 -0.011083317 0.27400002 10294
-0.0045688413 -0.011083317 0.27400002 10294
-0.0041243806 -0.011042866 0.273 10294
-0.0036965953 -0.011042866 0.273 10294
-0.0032688098 -0.011042866 0.273 10294
-0.0028306178 -0.011002417 0.27200001 10294
-0.0024043992 -0.011002417 0.27200001 10296
-0.0019781806 -0.011002417 0.27200001 10296
-0.0015519621 -0.011002417 0.27200001 10296
-0.0011257435 -0.011002417 0.27200001 10550
-0.00069952494 -0.011002417 0.27200001 10550
-0.00027330639 -0.011002417 0.27200001 10550
0.00015291215 -0.011002417 0.27200001 10550
0.00057913072 -0.011002417 0.27200001 10550
0.0010053492 -0.011002417 0.27200001 10550
0.0014315678 -0.011002417 0.27200001 10550
0.0018646164 -0.011042866 0.273 10294
0.0022924019 -0.011042866 0.273 10292
0.0027201874 -0.011042866 0.273 10292
0.003147973 -0.011042866 0.273 10292
0.0035757585 -0.011042866 0.273 10292
-0.0071449564 -0.010653964 0.27400002 10300
-0.0067156036 -0.010653964 0.27400002 10296
-0.0062862509 -0.010653964 0.27400002 10296
-0.0058568986 -0.010653964 0.27400002 10296
-0.0054275459 -0.010653964 0.27400002 10294
-0.0049981941 -0.010653964 0.27400002 10294
-0.0045521664 -0.010615081 0.273 10294
-0.0041243806 -0.010615081 0.273 10294
-0.0036965953 -0.010615081 0.273 10294
-0.0032688098 -0.010615081 0.273 10294
-0.0028306178 -0.010576198 0.27200001 10294
-0.0024043992 -0.010576198 0.27200001 10296
-0.0019781806 -0.010576198 0.27200001 10552
-0.0015519621 -0.010576198 0.27200001 10552
-0.0011257435 -0.010576198 0.27200001 10550
-0.00069952494 -0.010576198 0.27200001 10550
-0.00027330639 -0.010576198 0.27200001 10550
0.00015291215 -0.010576198 0.27200001 10550
0.00057913072 -0.010576198 0.27200001 10550
0.0010053492 -0.010576198 0.27200001 10550
0.0014315678 -0.010576198 0.27200001 10550
0.0018577864 -0.010576198 0.27200001 10294
0.0022924019 -0.010615081 0.273 10292
0.0027201874 -0.010615081 0.273 10292
0.003147973 -0.010615081 0.273 10292
-0.0071449564 -0.010224611 0.27400002 10052
-0.0067156036 -0.010224611 0.27400002 10046
-0.0062862509 -0.010224611 0.27400002 10046
-0.0058568986 -0.010224611 0.27400002 10300
-0.0054077371 -0.010187295 0.273 10300
-0.0049799522 -0.010187295 0.273 10300
-0.0045521664 -0.010187295 0.273 10300
-0.0041243806 -0.010187295 0.273 10556
-0.0036965953 -0.010187295 0.273 10556
-0.0032568362 -0.010149979 0.27200001 10556
-0.0028306178 -0.010149979 0.27200001 10556
-0.0024043992 -0.010149979 0.27200001 10556
-0.0019781806 -0.010149979 0.27200001 10556
-0.0015519621 -0.010149979 0.27200001 10556
-0.0011216048 -0.010112664 0.27100003 10556
-0.00069695321 -0.010112664 0.27100003 10556
-0.00027230161 -0.010112664 0.27100003 10556
0.00015291215 -0.010149979 0.27200001 10556
0.00057913072 -0.010149979 0.27200001 10556
0.0010053492 -0.010149979 0.27200001 10554
0.0014315678 -0.010149979 0.27200001 10554
0.0018577864 -0.010149979 0.27200001 10554
0.0022840048 -0.010149979 0.27200001 10556
0.0027102234 -0.010149979 0.27200001 10556
-0.0067156036 -0.0097952588 0.27400002 10306
-0.0062862509 -0.0097952588 0.27400002 10306
-0.0058355224 -0.0097595099 0.273 10304
-0.0054077371 -0.0097595099 0.273 10304
-0.0049799522 -0.0097595099 0.273 10304
-0.0045521664 -0.0097595099 0.273 10304
-0.0041243806 -0.0097595099 0.273 10304
-0.0036965953 -0.0097595099 0.273 10304
-0.0032568362 -0.0097237611 0.27200001 10304
-0.0028306178 -0.0097237611 0.27200001 10304
-0.0024043992 -0.0097237611 0.27200001 10304
-0.0019781806 -0.0097237611 0.27200001 10306
-0.0015519621 -0.0097237611 0.27200001 10306
-0.0011257435 -0.0097237611 0.27200001 10306
-0.00069695321 -0.0096880123 0.27100003 10306
-0.00027330639 -0.0097237611 0.27200001 10304
0.00015291215 -0.0097237611 0.27200001 10304
0.00057913072 -0.0097237611 0.27200001 10302
0.0010053492 -0.0097237611 0.27200001 10302
0.0014315678 -0.0097237611 0.27200001 10302
0.0018577864 -0.0097237611 0.27200001 10302
0.0022840048 -0.0097237611 0.27200001 10302
0.0027102234 -0.0097237611 0.27200001 10560
-0.0062174238 -0.0092633609 0.27100003 10306
-0.0057927719 -0.0092633609 0.27100003 10306
-0.0053879288 -0.0092975423 0.27200001 10306
-0.0049617109 -0.0092975423 0.27200001 10052
-0.004535492 -0.0092975423 0.27200001 10306
-0.0041092732 -0.0092975423 0.27200001 10306
-0.0036830548 -0.0092975423 0.27200001 10306
-0.0032568362 -0.0092975423 0.27200001 10306
-0.0028306178 -0.0092975423 0.27200001 10306
-0.0024043992 -0.0092975423 0.27200001 10052
-0.0019781806 -0.0092975423 0.27200001 10052
-0.0015519621 -0.0092975423 0.27200001 10308
-0.0011257435 -0.0092975423 0.27200001 10308
-0.00069695321 -0.0092633609 0.27100003 10308
-0.00027230161 -0.0092633609 0.27100003 10308
0.00015291215 -0.0092975423 0.27200001 10308
0.00057913072 -0.0092975423 0.27200001 10306
0.0010053492 -0.0092975423 0.27200001 10304
0.0014315678 -0.0092975423 0.27200001 10304
0.0018577864 -0.0092975423 0.27200001 10304
0.0022840048 -0.0092975423 0.27200001 10562
0.0027102234 -0.0092975423 0.27200001 10562
-0.0053681205 -0.0088387085 0.27100003 10052
-0.0049434695 -0.0088387085 0.27100003 10052
-0.0045188176 -0.0088387085 0.27100003 10306
-0.0040941657 -0.0088387085 0.27100003 10306
-0.0036830548 -0.0088713234 0.27200001 10562
-0.0032568362 -0.0088713234 0.27200001 10562
-0.0028306178 -0.0088713234 0.27200001 10562
-0.0024043992 -0.0088713234 0.27200001 10562
-0.0019781806 -0.0088713234 0.27200001 10308
-0.0011216048 -0.0088387085 0.27100003 10308
-0.00069695321 -0.0088387085 0.27100003 10308
-0.00027230161 -0.0088387085 0.27100003 10308
0.00015291215 -0.0088713234 0.27200001 10308
0.00057913072 -0.0088713234 0.27200001 10308
0.0010016531 -0.0088387085 0.27100003 10562
0.0014315678 -0.0088713234 0.27200001 10308
0.0018577864 -0.0088713234 0.27200001 10308
0.0022840048 -0.0088713234 0.27200001 10308
-0.0065440373 -0.0082898652 0.26700002 10562
-0.0057286453 -0.0083209127 0.26800001 10560
-0.0049252273 -0.0083830087 0.27000001 10562
-0.0032568362 -0.0084451055 0.27200001 10560
-0.00027230161 -0.008414058 0.27100003 10308
0.00015234998 -0.008414058 0.27100003 10308
0.00057700154 -0.008414058 0.27100003 10562
0.0010016531 -0.008414058 0.27100003 10562
0.0026604033 -0.0082898652 0.26700002 10308
-0.0065195272 -0.0078419996 0.266 10814
-0.0061027105 -0.0078419996 0.266 10814
-0.0052888859 -0.0078714807 0.26700002 11324
-0.0069102678 -0.0073972689 0.26500002 11324
-0.006495018 -0.0073972689 0.26500002 11580
-0.0060797683 -0.0073972689 0.26500002 11580
-0.0056645186 -0.0073972689 0.26500002 11580
-0.0052492688 -0.0073972689 0.26500002 11578
-0.0048340196 -0.0073972689 0.26500002 11578
0.00096099562 -0.0072576981 0.26000002 11580
0.0013684104 -0.0072576981 0.26000002 11580
-0.0068841907 -0.0069556716 0.264 12084
-0.0064705079 -0.0069556716 0.264 12084
-0.0060568256 -0.0069556716 0.264 13369
-0.0056217676 -0.0069293245 0.26300001 12338
-0.0052096518 -0.0069293245 0.26300001 12338
-0.0047975364 -0.0069293245 0.26300001 12336
-0.0043854206 -0.0069293245 0.26300001 12336
-0.0039430894 -0.0068766298 0.26100001 12336
-0.00026124876 -0.0068502831 0.26000002 12084
0.00014616603 -0.0068502831 0.26000002 12084
0.00055358082 -0.0068502831 0.26000002 12084
0.0013684104 -0.0068502831 0.26000002 12084
0.0017689951 -0.0068239355 0.259 12084
0.0021748429 -0.0068239355 0.259 12084
0.0025806907 -0.0068239355 0.259 12084
0.0029865385 -0.0068239355 0.259 12084
-0.0068581146 -0.0065172086 0.26300001 12338
-0.0064459988 -0.0065172086 0.26300001 12336
-0.0060338834 -0.0065172086 0.26300001 12336
-0.0056003924 -0.0064924289 0.26200002 12850
-0.0043520713 -0.0064676483 0.26100001 12590
-0.0039279819 -0.0064428682 0.26000002 12590
-0.0035205672 -0.0064428682 0.26000002 12590
-0.00026124876 -0.0064428682 0.26000002 12336
0.00014616603 -0.0064428682 0.26000002 12336
0.00055358082 -0.0064428682 0.26000002 12336
0.00096099562 -0.0064428682 0.26000002 12338
0.0013684104 -0.0064428682 0.26000002 12338
0.0017689951 -0.0064180875 0.259 12338
0.0021748429 -0.0064180875 0.259 12338
0.0025806907 -0.0064180875 0.259 12338
0.0029865385 -0.0064180875 0.259 12338
0.0033923863 -0.0064180875 0.259 13623
-0.0064214896 -0.0060818801 0.26200002 13614
-0.0060109408 -0.0060818801 0.26200002 15156
-0.0055790162 -0.0060586664 0.26100001 16441
-0.0051700342 -0.0060586664 0.26100001 13611
-0.0047610532 -0.0060586664 0.26100001 15410
-0.0043353969 -0.0060354532 0.26000002 15667
-0.0039279819 -0.0060354532 0.26000002 20807
-0.0035205672 -0.0060354532 0.26000002 12840
-0.0031011787 -0.0060122395 0.259 14124
-0.00066866359 -0.0060354532 0.26000002 12842
-0.00026124876 -0.0060354532 0.26000002 12844
0.00014616603 -0.0060354532 0.26000002 12588
0.00055358082 -0.0060354532 0.26000002 12845
0.00096099562 -0.0060354532 0.26000002 12588
0.0013631473 -0.0060122395 0.259 12590
0.0017689951 -0.0060122395 0.259 12590
0.0021748429 -0.0060122395 0.259 12590
0.0025806907 -0.0060122395 0.259 12590
0.0029865385 -0.0060122395 0.259 12590
0.0033923863 -0.0060122395 0.259 17216
-0.0055790162 -0.0056496845 0.26100001 19777
-0.0051502259 -0.0056280387 0.26000002 20291
-0.0047428119 -0.0056280387 0.26000002 20546
-0.0043353969 -0.0056280387 0.26000002 21060
-0.003912874 -0.0056063919 0.259 16177
-0.0035070265 -0.0056063919 0.259 15920
-0.0031011787 -0.0056063919 0.259 15663
-0.0026953307 -0.0056063919 0.259 17462
-0.0010760784 -0.0056280387 0.26000002 16691
-0.00066866359 -0.0056280387 0.26000002 18490
-0.00026124876 -0.0056280387 0.26000002 21317
0.00014616603 -0.0056280387 0.26000002 16691
0.00055145164 -0.0056063919 0.259 14892
0.00095729943 -0.0056063919 0.259 13864
0.0013631473 -0.0056063919 0.259 12836
0.0017689951 -0.0056063919 0.259 17721
0.0021748429 -0.0056063919 0.259 22861
0.0025806907 -0.0056063919 0.259 13866
0.0029865385 -0.0056063919 0.259 13095
0.0033923863 -0.0056063919 0.259 19006
0.0037982338 -0.0056063919 0.259 13352
-0.0051304172 -0.0052005439 0.259 22603
-0.0047245701 -0.0052005439 0.259 23115
-0.0043187221 -0.0052005439 0.259 23117
-0.003912874 -0.0052005439 0.259 13093
-0.0035070265 -0.0052005439 0.259 20289
-0.0031011787 -0.0052005439 0.259 16175
-0.0026953307 -0.0052005439 0.259 22600
-0.0022894829 -0.0052005439 0.259 21315
-0.0018836351 -0.0052005439 0.259 17203
-0.0014777874 -0.0052005439 0.259 17203
-0.0010719395 -0.0052005439 0.259 26713
-0.00066609174 -0.0052005439 0.259 29026
-0.00026024395 -0.0052005439 0.259 24401
0.00014560384 -0.0052005439 0.259 22088
0.00055145164 -0.0052005439 0.259 13350
0.00095729943 -0.0052005439 0.259 27741
0.0013631473 -0.0052005439 0.259 20032
0.0017689951 -0.0052005439 0.259 29026
0.0021748429 -0.0052005439 0.259 23115
0.0025806907 -0.0052005439 0.259 18746
0.0033923863 -0.0052005439 0.259 15663
0.0037982338 -0.0052005439 0.259 21574
0.0042040818 -0.0052005439 0.259 24403
-0.0059421128 -0.0047946963 0.259 25430
-0.0055362652 -0.0047946963 0.259 12323
-0.0051304172 -0.0047946963 0.259 19262
-0.0047245701 -0.0047946963 0.259 26460
-0.0043187221 -0.0047946963 0.259 22089
-0.003912874 -0.0047946963 0.259 28001
-0.0035070265 -0.0047946963 0.259 25174
-0.0031011787 -0.0047946963 0.259 20805
-0.0026953307 -0.0047946963 0.259 26202
-0.0022894829 -0.0047946963 0.259 26973
-0.0018836351 -0.0047946963 0.259 33142
-0.0014777874 -0.0047946963 0.259 28256
-0.0010719395 -0.0047946963 0.259 24915
-0.00066609174 -0.0047946963 0.259 29541
-0.00026024395 -0.0047946963 0.259 29542
0.00014560384 -0.0047946963 0.259 33653
0.00055145164 -0.0047946963 0.259 24658
0.00095729943 -0.0047946963 0.259 31597
0.0013631473 -0.0047946963 0.259 30826
0.0017689951 -0.0047946963 0.259 28770
0.0021748429 -0.0047946963 0.259 25429
0.0025806907 -0.0047946963 0.259 22601
0.0029865385 -0.0047946963 0.259 27998
0.0033923863 -0.0047946963 0.259 28255
0.0037982338 -0.0047946963 0.259 30059
0.0042040818 -0.0047946963 0.259 27489
-0.0063234516 -0.0043719034 0.25800002 25173
-0.0059191706 -0.0043719034 0.25800002 26458
-0.00551489 -0.0043719034 0.25800002 20804
-0.0051106089 -0.0043719034 0.25800002 23117
-0.0047063287 -0.0043719034 0.25800002 29285
-0.0043020477 -0.0043719034 0.25800002 20547
-0.0038977666 -0.0043719034 0.25800002 26713
-0.0035070265 -0.0043888483 0.259 29283
-0.0030892051 -0.0043719034 0.25800002 24914
-0.0026849243 -0.0043719034 0.25800002 23887
-0.0022894829 -0.0043888483 0.259 31083
-0.0018836351 -0.0043888483 0.259 428412
-0.0014777874 -0.0043888483 0.259 32884
-0.0010719395 -0.0043888483 0.259 28001
-0.00066609174 -0.0043888483 0.259 30571
-0.00026024395 -0.0043888483 0.259 27743
0.00014560384 -0.0043888483 0.259 27228
0.00055145164 -0.0043888483 0.259 21831
0.00095729943 -0.0043888483 0.259 626561
0.0013631473 -0.0043888483 0.259 99447
0.0017689951 -0.0043888483 0.259 29285
0.0021664458 -0.0043719034 0.25800002 26201
0.0025806907 -0.0043888483 0.259 25429
0.0029865385 -0.0043888483 0.259 32112
0.0033923863 -0.0043888483 0.259 1152135
0.0037982338 -0.0043888483 0.259 30571
0.0042040818 -0.0043888483 0.259 25688
-0.0063234516 -0.0039676228 0.25800002 26459
-0.0059191706 -0.0039676228 0.25800002 491893
-0.00551489 -0.0039676228 0.25800002 689272
-0.0051106089 -0.0039676228 0.25800002 623479
-0.0047063287 -0.0039676228 0.25800002 755065
-0.0043020477 -0.0039676228 0.25800002 30314
-0.0038977666 -0.0039676228 0.25800002 1675397
-0.003493486 -0.0039676228 0.25800002 1543811
-0.0030892051 -0.0039676228 0.25800002 1608834
-0.0026849243 -0.0039676228 0.25800002 2068872
-0.0022806432 -0.0039676228 0.25800002 1081977
-0.0018836351 -0.0039830008 0.259 1147000
-0.0014777874 -0.0039830008 0.259 1541758
-0.0010719395 -0.0039830008 0.259 2528653
-0.00066609174 -0.0039830008 0.259 1673344
-0.00025923917 -0.0039676228 0.25800002 27490
0.00014560384 -0.0039830008 0.259 424560
0.00055145164 -0.0039830008 0.259 424560
0.0009536033 -0.0039676228 0.25800002 490353
0.0013578841 -0.0039676228 0.25800002 753012
0.0017621651 -0.0039676228 0.25800002 818805
0.0021664458 -0.0039676228 0.25800002 753012
0.0025707267 -0.0039676228 0.25800002 1871493
0.0029750075 -0.0039676228 0.25800002 2002309
0.0033792884 -0.0039676228 0.25800002 2135180
0.003783569 -0.0039676228 0.25800002 2201741
0.0041878503 -0.0039676228 0.25800002 29801
-0.0059191706 -0.0035633417 0.25800002 1674114
-0.00551489 -0.0035633417 0.25800002 1542528
-0.0051106089 -0.0035633417 0.25800002 1016184
-0.0047063287 -0.0035633417 0.25800002 1608321
-0.0043020477 -0.0035633417 0.25800002 1804930
-0.0038977666 -0.0035633417 0.25800002 3647388
-0.003493486 -0.0035633417 0.25800002 1213047
-0.0030892051 -0.0035633417 0.25800002 1870720
-0.0026849243 -0.0035633417 0.25800002 3777947
-0.0022806432 -0.0035633417 0.25800002 1014641
-0.0018763625 -0.0035633417 0.25800002 2264708
-0.0014720816 -0.0035633417 0.25800002 2329477
-0.0010678008 -0.0035633417 0.25800002 2658442
-0.00066352001 -0.0035633417 0.25800002 3250579
-0.00025923917 -0.0035633417 0.25800002 1474938
0.00014504167 -0.0035633417 0.25800002 1212536
0.00054932252 -0.0035633417 0.25800002 1278329
0.0009536033 -0.0035633417 0.25800002 1409915
0.0013578841 -0.0035633417 0.25800002 1607294
0.0017621651 -0.0035633417 0.25800002 1607294
0.0021664458 -0.0035633417 0.25800002 1673087
0.0025707267 -0.0035633417 0.25800002 2396810
0.0029750075 -0.0035633417 0.25800002 3185556
0.0033792884 -0.0035633417 0.25800002 2659212
0.003783569 -0.0035633417 0.25800002 948594
0.0041878503 -0.0035633417 0.25800002 356457
-0.0083125113 -0.0031468163 0.257 1805184
-0.0079097971 -0.0031468163 0.257 2331271
-0.0075070835 -0.0031468163 0.257 3449752
-0.0071043693 -0.0031468163 0.257 1869178
-0.0067277323 -0.0031590608 0.25800002 3184525
-0.0063234516 -0.0031590608 0.25800002 3118732
-0.0059191706 -0.0031590608 0.25800002 3776662
-0.00551489 -0.0031590608 0.25800002 4039834
-0.0051106089 -0.0031590608 0.25800002 3249548
-0.0047063287 -0.0031590608 0.25800002 2657411
-0.0043020477 -0.0031590608 0.25800002 2657411
-0.0038977666 -0.0031590608 0.25800002 2657411
-0.003493486 -0.0031590608 0.25800002 2065274
-0.0030892051 -0.0031590608 0.25800002 3512463
-0.0026849243 -0.0031590608 0.25800002 4695967
-0.0022806432 -0.0031590608 0.25800002 2459005
-0.0018763625 -0.0031590608 0.25800002 2394239
-0.0014720816 -0.0031590608 0.25800002 2197630
-0.0010678008 -0.0031590608 0.25800002 2987146
-0.00066352001 -0.0031590608 0.25800002 3645076
-0.00025923917 -0.0031590608 0.25800002 1605493
0.00014504167 -0.0031590608 0.25800002 1802872
0.00054932252 -0.0031590608 0.25800002 2395524
0.0009536033 -0.0031590608 0.25800002 2592903
0.0013578841 -0.0031590608 0.25800002 2000766
0.0017621651 -0.0031590608 0.25800002 2987661
0.0021664458 -0.0031590608 0.25800002 2461317
0.0025707267 -0.0031590608 0.25800002 2592390
0.0029750075 -0.0031590608 0.25800002 3381906
0.0033792884 -0.0031590608 0.25800002 2592390
0.003783569 -0.0031590608 0.25800002 1276530
-0.0087152245 -0.0027441024 0.257 4505531
-0.0083125113 -0.0027441024 0.257 4172187
-0.0079097971 -0.0027441024 0.257 3447949
-0.0075070835 -0.0027441024 0.257 4500637
-0.0071043693 -0.0027441024 0.257 3447179
-0.0067016557 -0.0027441024 0.257 4105109
-0.0063234516 -0.00275478 0.25800002 3776144
-0.0059191706 -0.00275478 0.25800002 4170645
-0.00551489 -0.00275478 0.25800002 4894368
-0.0051106089 -0.00275478 0.25800002 4367254
-0.0047063287 -0.00275478 0.25800002 3709324
-0.0043020477 -0.00275478 0.25800002 3446152
-0.0038977666 -0.00275478 0.25800002 3116417
-0.003493486 -0.00275478 0.25800002 3840140
-0.0030892051 -0.00275478 0.25800002 3313796
-0.0026849243 -0.00275478 0.25800002 2655866
-0.0022806432 -0.00275478 0.25800002 4300178
-0.0018763625 -0.00275478 0.25800002 3839627
-0.0014720816 -0.00275478 0.25800002 3971213
-0.0010678008 -0.00275478 0.25800002 4168592
-0.00066352001 -0.00275478 0.25800002 4300178
-0.00025923917 -0.00275478 0.25800002 3774345
0.00014504167 -0.00275478 0.25800002 5287584
0.00054932252 -0.00275478 0.25800002 3116417
0.0009536033 -0.00275478 0.25800002 2984831
0.0013578841 -0.00275478 0.25800002 3115904
0.0017621651 -0.00275478 0.25800002 4037008
0.0021664458 -0.00275478 0.25800002 4365973
0.0025707267 -0.00275478 0.25800002 4958110
0.0029750075 -0.00275478 0.25800002 5550247
0.0033792884 -0.00275478 0.25800002 4102799
0.003783569 -0.00275478 0.25800002 3971213
0.0041878503 -0.00275478 0.25800002 4563350
-0.0087152245 -0.0023413887 0.257 5293242
-0.0083125113 -0.0023413887 0.257 6012331
-0.0079097971 -0.0023413887 0.257 5814182
-0.0075070835 -0.0023413887 0.257 4499610
-0.0071043693 -0.0023413887 0.257 3775887
-0.0067016557 -0.0023413887 0.257 4433047
-0.0062989416 -0.0023413887 0.257 3906703
-0.0058962279 -0.0023413887 0.257 4432275
-0.00551489 -0.0023504994 0.25800002 4958619
-0.0051106089 -0.0023504994 0.25800002 4958106
-0.0047063287 -0.0023504994 0.25800002 4300176
-0.0043020477 -0.0023504994 0.25800002 4497555
-0.0038977666 -0.0023504994 0.25800002 5417887
-0.003493486 -0.0023504994 0.25800002 6075817
-0.0030892051 -0.0023504994 0.25800002 4694164
-0.0026849243 -0.0023504994 0.25800002 3641476
-0.0022806432 -0.0023504994 0.25800002 5220508
-0.0018763625 -0.0023504994 0.25800002 4759957
-0.0014720816 -0.0023504994 0.25800002 6536368
-0.0010678008 -0.0023504994 0.25800002 5615266
-0.00066352001 -0.0023504994 0.25800002 5944231
-0.00025923917 -0.0023504994 0.25800002 5023129
0.00014504167 -0.0023504994 0.25800002 5220508
0.00054932252 -0.0023504994 0.25800002 5023129
0.0009536033 -0.0023504994 0.25800002 4891543
0.0013578841 -0.0023504994 0.25800002 5549216
0.0017621651 -0.0023504994 0.25800002 4693907
0.0021664458 -0.0023504994 0.25800002 3378047
0.0025707267 -0.0023504994 0.25800002 4759700
0.0029750075 -0.0023504994 0.25800002 5943974
0.0033792884 -0.0023504994 0.25800002 4299149
0.003783569 -0.0023504994 0.25800002 4825493
0.0042040818 -0.0023596096 0.259 4825493
-0.0091179386 -0.0019386748 0.257 28809
-0.0087152245 -0.0019386748 0.257 5555385
-0.0083125113 -0.0019386748 0.257 6471597
-0.0079097971 -0.0019386748 0.257 6536620
-0.0075070835 -0.0019386748 0.257 6010276
-0.0071043693 -0.0019386748 0.257 4628366
-0.0067016557 -0.0019386748 0.257 5088917
-0.0062989416 -0.0019386748 0.257 5549468
-0.0058962279 -0.0019386748 0.257 5154710
-0.00551489 -0.0019462184 0.25800002 4824975
-0.0051106089 -0.0019462184 0.25800002 5942686
-0.0047063287 -0.0019462184 0.25800002 6666409
-0.0043020477 -0.0019462184 0.25800002 6929835
-0.0038977666 -0.0019462184 0.25800002 7455666
-0.003493486 -0.0019462184 0.25800002 6731943
-0.0030892051 -0.0019462184 0.25800002 7785142
-0.0026849243 -0.0019462184 0.25800002 7324591
-0.0022806432 -0.0019462184 0.25800002 8245693
-0.0018763625 -0.0019462184 0.25800002 7324591
-0.0014720816 -0.0019462184 0.25800002 6864040
-0.0010678008 -0.0019462184 0.25800002 6731941
-0.00066352001 -0.0019462184 0.25800002 6731941
-0.00025923917 -0.0019462184 0.25800002 6271392
0.00014504167 -0.0019462184 0.25800002 6469282
0.00054932252 -0.0019462184 0.25800002 6535075
0.0009536033 -0.0019462184 0.25800002 7127212
0.0013578841 -0.0019462184 0.25800002 7324589
0.0017621651 -0.0019462184 0.25800002 8574656
0.0021664458 -0.0019462184 0.25800002 7324589
0.0025707267 -0.0019462184 0.25800002 6271388
0.0029750075 -0.0019462184 0.25800002 6008218
0.0033792884 -0.0019462184 0.25800002 7324078
0.003783569 -0.0019462184 0.25800002 6731941
0.0042040818 -0.0019537618 0.259 6402976
0.0046099299 -0.0019537618 0.259 7916728
-0.0091179386 -0.0015359609 0.257 6805193
-0.0087152245 -0.0015359609 0.257 7068365
-0.0083125113 -0.0015359609 0.257 7785912
-0.0079097971 -0.0015359609 0.257 6403489
-0.0075070835 -0.0015359609 0.257 6798247
-0.0071043693 -0.0015359609 0.257 6469282
-0.0067016557 -0.0015359609 0.257 6206110
-0.0062989416 -0.0015359609 0.257 6206110
-0.0058962279 -0.0015359609 0.257 6271903
-0.0054935138 -0.0015359609 0.257 5942938
-0.0050908001 -0.0015359609 0.257 8442559
-0.0047063287 -0.0015419376 0.25800002 7192492
-0.0043020477 -0.0015419376 0.25800002 7981236
-0.0038977666 -0.0015419376 0.25800002 7981490
-0.003493486 -0.0015419376 0.25800002 7191974
-0.0030892051 -0.0015419376 0.25800002 7390123
-0.0026849243 -0.0015419376 0.25800002 7916465
-0.0022806432 -0.0015419376 0.25800002 8903360
-0.0018763625 -0.0015419376 0.25800002 8179637
-0.0014720816 -0.0015419376 0.25800002 6863779
-0.0010678008 -0.0015419376 0.25800002 6402204
-0.00066352001 -0.0015419376 0.25800002 6928548
-0.00025923917 -0.0015419376 0.25800002 8310201
0.00014504167 -0.0015419376 0.25800002 7849904
0.00054932252 -0.0015419376 0.25800002 7586730
0.0009536033 -0.0015419376 0.25800002 8376246
0.0013578841 -0.0015419376 0.25800002 8442037
0.0017621651 -0.0015419376 0.25800002 8902588
0.0021664458 -0.0015419376 0.25800002 7652521
0.0025707267 -0.0015419376 0.25800002 7125664
0.0029750075 -0.0015419376 0.25800002 8309938
0.0033792884 -0.0015419376 0.25800002 8244658
0.003783569 -0.0015419376 0.25800002 7060384
0.0042040818 -0.001547914 0.259 7323556
-0.0091179386 -0.0011332472 0.257 7592906
-0.0087152245 -0.0011332472 0.257 8908766
-0.0083125113 -0.0011332472 0.257 11074529
-0.0079097971 -0.0011332472 0.257 8638389
-0.0075070835 -0.0011332472 0.257 7651494
-0.0071043693 -0.0011332472 0.257 9691591
-0.0067016557 -0.0011332472 0.257 10612946
-0.0062989416 -0.0011332472 0.257 9362363
-0.0058962279 -0.0011332472 0.257 10480844
-0.0054935138 -0.0011332472 0.257 11796448
-0.0050908001 -0.0011332472 0.257 9428156
-0.0046880865 -0.0011332472 0.257 8901812
-0.0042853728 -0.0011332472 0.257 9164986
-0.0038826587 -0.0011332472 0.257 9099193
-0.003479945 -0.0011332472 0.257 9954502
-0.0030772311 -0.0011332472 0.257 8704435
-0.0026745172 -0.0011332472 0.257 8309675
-0.0022718036 -0.0011332472 0.257 8901812
-0.0018690896 -0.0011332472 0.257 7651745
-0.0014663759 -0.0011332472 0.257 8441261
-0.001063662 -0.0011332472 0.257 10152133
-0.00066094816 -0.0011332472 0.257 12386279
-0.00025823433 -0.0011332472 0.257 10480326
0.00014504167 -0.0011376567 0.25800002 9164464
0.00054932252 -0.0011376567 0.25800002 11598805
0.0009536033 -0.0011376567 0.25800002 10414531
0.0013578841 -0.0011376567 0.25800002 10217152
0.0017621651 -0.0011376567 0.25800002 11466706
0.0021664458 -0.0011376567 0.25800002 12058587
0.0025707267 -0.0011376567 0.25800002 9033652
0.0029750075 -0.0011376567 0.25800002 11072465
0.0033923863 -0.0011420662 0.259 11072465
0.0037982338 -0.0011420662 0.259 9493433
0.0042040818 -0.0011420662 0.259 9494203
-0.0091179386 -0.00073053327 0.257 8446672
-0.0087152245 -0.00073053327 0.257 10223083
-0.0083125113 -0.00073053327 0.257 10744530
-0.0079097971 -0.00073053327 0.257 10415305
-0.0075070835 -0.00073053327 0.257 9362617
-0.0071043693 -0.00073053327 0.257 9691582
-0.0067016557 -0.00073053327 0.257 11204819
-0.0062989416 -0.00073053327 0.257 11072463
-0.0058962279 -0.00073053327 0.257 11598807
-0.0054935138 -0.00073053327 0.257 11533014
-0.0050908001 -0.00073053327 0.257 8967857
-0.0046880865 -0.00073053327 0.257 8638892
-0.0042853728 -0.00073053327 0.257 8441515
-0.0038826587 -0.00073053327 0.257 10282949
-0.003479945 -0.00073053327 0.257 11664600
-0.0030772311 -0.00073053327 0.257 10414533
-0.0026745172 -0.00073053327 0.257 11006157
-0.0022718036 -0.00073053327 0.257 11269329
-0.0018690896 -0.00073053327 0.257 10611399
-0.0014663759 -0.00073053327 0.257 11006157
-0.001063662 -0.00073053327 0.257 11598292
-0.00066094816 -0.00073053327 0.257 11729878
-0.00025823433 -0.00073053327 0.257 11268557
0.00014447949 -0.00073053327 0.257 11531729
0.00054719328 -0.00073053327 0.257 11071178
0.0009536033 -0.0007333759 0.25800002 11071178
0.0013578841 -0.0007333759 0.25800002 10742213
0.0017621651 -0.0007333759 0.25800002 11333837
0.0021664458 -0.0007333759 0.25800002 11333837
0.0025707267 -0.0007333759 0.25800002 11464909
0.0029750075 -0.0007333759 0.25800002 11464909
0.0033923863 -0.00073621841 0.259 11464909
0.0037982338 -0.00073621841 0.259 11727311
0.0042040818 -0.00073621841 0.259 11727311
-0.0091179386 -0.00032781949 0.257 10354149
-0.0087152245 -0.00032781949 0.257 10813420
-0.0083125113 -0.00032781949 0.257 11401426
-0.0079097971 -0.00032781949 0.257 11466706
-0.0075070835 -0.00032781949 0.257 11006155
-0.0071043693 -0.00032781949 0.257 10677190
-0.0067016557 -0.00032781949 0.257 11071178
-0.0062989416 -0.00032781949 0.257 10742213
-0.0058962279 -0.00032781949 0.257 10808006
-0.0054935138 -0.00032781949 0.257 10610627
-0.0050908001 -0.00032781949 0.257 11728595
-0.0046880865 -0.00032781949 0.257 12320732
-0.0042853728 -0.00032781949 0.257 10018490
-0.0038826587 -0.00032781949 0.257 11531729
-0.003479945 -0.00032781949 0.257 11859667
-0.0030772311 -0.00032781949 0.257 11400143
-0.0026745172 -0.00032781949 0.257 11596495
-0.0022718036 -0.00032781949 0.257 11596495
-0.0018690896 -0.00032781949 0.257 11530702
-0.0014663759 -0.00032781949 0.257 11399630
-0.001063662 -0.00032781949 0.257 11399630
-0.00066094816 -0.00032781949 0.257 11333837
-0.00025823433 -0.00032781949 0.257 11004872
0.00014447949 -0.00032781949 0.257 11004872
0.00054719328 -0.00032781949 0.257 11004872
0.0009536033 -0.00032909508 0.25800002 11399630
0.0013578841 -0.00032909508 0.25800002 11136458
0.0017621651 -0.00032909508 0.25800002 11727311
0.0021664458 -0.00032909508 0.25800002 11858897
0.0025707267 -0.00032909508 0.25800002 11661005
0.0029750075 -0.00032909508 0.25800002 11857614
0.0033923863 -0.00033037062 0.259 11923407
0.0037982338 -0.00033037062 0.259 12383958
0.0042040818 -0.00033037062 0.259 12186066
0.0046099299 -0.00033037062 0.259 12120786
-0.0087152245 7.4894349e-05 0.257 10944491
-0.0083125113 7.4894349e-05 0.257 11598292
-0.0079097971 7.4894349e-05 0.257 11136458
-0.0075070835 7.4894349e-05 0.257 11136458
-0.0071043693 7.4894349e-05 0.257 11004872
-0.0067016557 7.4894349e-05 0.257 11136458
-0.0062989416 7.4894349e-05 0.257 10939079
-0.0058962279 7.4894349e-05 0.257 10873286
-0.0054935138 7.4894349e-05 0.257 10939079
-0.0050908001 7.4894349e-05 0.257 11728081
-0.0046880865 7.4894349e-05 0.257 11596495
-0.0042853728 7.4894349e-05 0.257 10675907
-0.0038826587 7.4894349e-05 0.257 10873286
-0.003479945 7.4894349e-05 0.257 11859667
-0.0030772311 7.4894349e-05 0.257 11859667
-0.0026745172 7.4894349e-05 0.257 12121556
-0.0022718036 7.4894349e-05 0.257 11726798
-0.0018690896 7.4894349e-05 0.257 11529419
-0.0014663759 7.4894349e-05 0.257 11200967
-0.001063662 7.4894349e-05 0.257 10938565
-0.00066094816 7.4894349e-05 0.257 11464909
-0.00025823433 7.4894349e-05 0.257 10872772
0.00014447949 7.4894349e-05 0.257 10017463
0.00054719328 7.4894349e-05 0.257 11004358
0.00094990712 7.4894349e-05 0.257 11267530
0.0013578841 7.5185773e-05 0.25800002 11399116
0.0017621651 7.5185773e-05 0.25800002 13762536
