# .PCD v0.7 - Point Cloud Data file format
VERSION 0.7
FIELDS x y z normal_x normal_y normal_z curvature
SIZE 4 4 4 4 4 4 4
TYPE F F F F F F F
COUNT 1 1 1 1 1 1 1
WIDTH 1008
HEIGHT 1
VIEWPOINT 0 0 0 1 0 0 0
POINTS 1008
DATA ascii
78.133621 18.649 12.726259 0 1 0 0
24.657955 16.433556 15.7838 0 0 1 0
3.2962987 15.867168 0.78376001 0 0 -1 0
45.461311 1.0109646 1.8794231 -0.032366257 -0.99947524 -0.0012737944 0
74.524139 18.25946 3.5924444 -0.21393396 0.97684813 0 0
64.630013 21.93276 10.172815 0.88724279 0.46130258 0.00025032327 0
2.8786278 13.690445 15.7838 0 0 1 0
58.16127 38.569763 15.557638 0.51997232 0.81419837 0.25828242 0
38.810387 2.2901726 9.0158501 -0.50667995 -0.86213422 0 0
68.227829 17.544889 7.2284188 0.53347176 0.84556454 0.020700771 0
41.042896 1.5674814 15.442302 -0.20944998 -0.97781932 0 0
30.959759 13.375454 0.78376001 0 0 -1 0
23.131638 9.8026686 4.2827182 -0.10530615 -0.99443984 0.00011190918 0
40.798512 38.952255 0.78376007 0 0 -1 0
81.889771 15.873302 0.78375995 0 0 -1 0
30.305183 10.665576 0.81333256 -0.062936455 -0.25131884 -0.96585596 0
59.122429 20.84519 0.78376001 0 0 -1 0
48.021801 12.498311 0.78376001 0 0 -1 0
47.505596 42.757133 10.708975 0.21046641 0.97760105 -0 0
15.51419 15.527951 0.78376001 0 0 -1 0
86.928101 15.106161 1.6847314 1 0 0 0
18.14436 11.7486 8.899498 0 -1 0 0
51.411633 23.430771 0.78376007 0 0 -1 0
46.2813 4.1162748 15.7838 0 -0 1 0
51.648224 1.9001998 6.5169616 0.29565525 -0.95529354 -0.001489582 0
22.813576 27.494629 0.78375995 0 0 -1 0
41.263168 40.149296 15.584912 -0.68105018 0.54815346 0.48548782 0
44.832912 32.528088 15.7838 0 0 1 0
35.525867 27.621838 0.78375995 0 0 -1 0
55.880413 34.63773 0.78376007 0 0 -1 0
5.7921076 17.159382 0.78376001 0 0 -1 0
77.622452 10.007816 15.502114 0 -0.98582464 0.16777879 0
81.01973 16.69709 15.7838 0 0 1 0
35.039413 19.075108 15.7838 0 0 1 0
1.374724 9.9591618 3.8024967 -0.32055432 -0.94722939 0.0011790185 0
34.576328 31.870087 12.552066 -0.77901131 0.62700987 0 0
19.352131 11.95845 15.7838 0 0 1 0
27.771749 27.860645 0.78376001 0 0 -1 0
10.955424 10.00299 1.9423637 0.019088468 -0.99981779 0 0
20.77372 12.496736 0.78376001 0 0 -1 0
77.079239 18.649 10.900957 0 1 0 0
47.056503 11.495391 0.78376007 0 0 -1 0
60.301933 35.507679 3.3975978 0.94263583 0.33381999 -0.0013937337 0
26.3813 10.116662 13.803281 0.3268773 -0.94506687 0 0
57.831757 38.809647 9.0412436 0.53113419 0.8472864 0.0014743973 0
32.900223 9.0879765 8.8496923 -0.65451425 -0.7560485 0.0013185689 0
61.995472 28.580677 13.8651 0.95432925 0.29875484 -0.0010950044 0
31.23806 22.000879 0.78375995 0 0 -1 0
8.9567146 9.9648304 11.099549 0.019088468 -0.99981779 0 0
23.804859 14.461885 0.78376001 0 0 -1 0
35.678265 28.287348 15.783799 0 0 1 0
38.053017 3.6378374 15.7838 0 0 1 0
67.038002 16.82568 15.7838 0 0 1 0
0.29087815 10.941477 8.3874378 -0.94560945 -0.32530317 0.00084330165 0
64.07843 11.700967 10.943933 0.34593728 -0.9382571 -0.00096473523 0
49.818481 42.153595 3.2836914 0.26049218 0.96547592 0 0
27.972607 10.537945 12.279724 0.13905838 -0.99028319 -0.0013769439 0
61.489761 30.238701 11.705879 0.9600817 0.27971148 0.0021819291 0
36.628937 23.106686 15.7838 0 0 1 0
9.1351852 9.9682379 8.6199255 0.019088468 -0.99981779 0 0
34.050358 7.6659403 6.8451004 -0.82572371 -0.56407475 0 0
45.846794 16.512934 15.783801 0 -0 1 0
86.880432 17.388733 9.9679842 0.93768066 0.34749833 -0 0
47.396133 1.0610614 13.185088 0.066268533 -0.99780095 -0.0012981259 0
52.518047 16.839645 0.78376001 0 0 -1 0
40.454136 39.172813 9.1949635 -0.77901131 0.62700987 0 0
2.4265597 18.888901 1.9634918 0 1 0 0
61.944328 10.266599 13.339666 0.73397261 -0.67917764 -0.0013801187 0
54.924198 20.514896 0.78376001 0 0 -1 0
75.404099 17.467846 15.7838 0 0 1 0
18.359793 18.954086 6.7680349 -0.94752479 0.31968224 0 0
41.016346 11.984846 15.7838 0 0 1 0
57.708656 26.898643 0.78375995 0 0 -1 0
25.219868 23.589941 0.78375995 0 0 -1 0
50.389797 18.720406 15.7838 0 -0 1 0
62.279915 24.236263 15.7838 0 0 1 0
40.708496 18.717529 0.78376001 0 0 -1 0
35.911114 14.072696 15.7838 0 0 1 0
19.258772 21.618626 10.658085 -0.94752479 0.31968224 0 0
48.603874 27.097439 0.78376001 0 0 -1 0
18.669447 19.871891 6.5969696 -0.94752479 0.31968224 0 0
19.936893 23.628548 5.7962103 -0.94752479 0.31968224 0 0
56.287006 20.760534 0.78376001 0 0 -1 0
12.612458 18.565125 1.4446405 0.39191389 0.92000192 -0.00011446791 0
4.845716 18.888901 6.6307259 0 1 0 0
60.923233 14.635924 15.7838 0 -0 1 0
47.668491 15.155092 0.78376001 0 0 -1 0
46.976795 2.3585968 15.7838 0 -0 1 0
86.928101 14.54544 8.7684841 1 0 0 0
23.50301 32.508545 2.9995372 -0.29124394 0.95664877 0 0
8.5011053 11.332311 0.78376001 0 0 -1 0
9.1379204 9.9682894 5.9445977 0.019088468 -0.99981779 0 0
20.785101 26.142599 2.3721027 -0.94752479 0.31968224 0 0
12.668367 13.796514 15.7838 0 -0 1 0
12.118559 10.266672 1.9293145 0.42268285 -0.9062776 0 0
51.588951 40.209965 15.7838 0 0 1 0
50.334457 32.470329 15.7838 0 0 1 0
46.839249 7.0146327 15.7838 0 0 1 0
41.644295 40.651489 8.1921854 -0.77901131 0.62700987 0 0
47.501663 31.123678 15.7838 0 0 1 0
82.05024 14.476687 15.7838 0 0 1 0
83.15464 10.0047 2.2588801 0 -1 0 0
21.181524 24.749508 15.7838 0 0 1 0
26.903431 23.887896 0.78376001 0 0 -1 0
57.220806 31.329086 0.78376007 0 0 -1 0
55.233112 17.571835 0.78376001 0 0 -1 0
71.039833 11.843689 5.239089 -0.13581814 -0.9907338 4.4031491e-05 0
37.100983 4.8109436 15.7838 0 0 1 0
60.218349 35.74424 3.5276763 0.94263583 0.33381999 -0.0013937337 0
24.85092 22.03336 15.7838 0 0 1 0
45.942329 1.0013442 14.226955 0.040157352 -0.99919254 0.0012776545 0
21.973122 15.119467 0.78375995 0 0 -1 0
47.940262 4.1150193 0.78376007 0 0 -1 0
24.30983 30.862511 0.78376001 0 0 -1 0
60.656826 24.335617 15.7838 0 0 1 0
37.146725 3.4464622 9.1124058 -0.67938077 -0.73378116 -0.0026324107 0
20.701359 19.591991 15.7838 0 0 1 0
23.186531 23.65661 0.78376001 0 0 -1 0
32.5481 24.953012 0.78376001 0 0 -1 0
37.366108 35.33617 1.8038094 -0.77901131 0.62700987 0 0
52.019417 41.464306 10.066408 0.31521708 0.94901955 -0 0
56.663956 24.552877 15.7838 0 0 1 0
24.082272 26.264963 0.78376001 0 0 -1 0
43.82769 27.555679 0.78376001 0 0 -1 0
73.361618 17.758125 12.77392 -0.39156517 0.9201504 0 0
51.847122 35.462147 0.78376007 0 0 -1 0
28.741943 21.161327 15.7838 0 0 1 0
29.127611 26.694527 15.783799 0 0 1 0
77.158447 18.648998 8.9807301 0 1 0 0
26.248787 31.932964 2.1226377 0.34074026 0.94015741 0 0
76.339104 15.97658 15.7838 0 -0 1 0
62.447609 27.162025 14.204207 0.93618745 0.35149845 0.0013970175 0
80.081329 12.50117 0.78376001 0 0 -1 0
39.733868 38.277931 14.338945 -0.77901131 0.62700987 0 0
73.867676 12.700354 15.7838 0 0 1 0
26.944221 29.879658 0.78376001 0 0 -1 0
32.852722 11.162662 0.78376001 0 0 -1 0
80.146408 13.076736 0.78376001 0 0 -1 0
44.940903 25.585999 0.78376001 0 0 -1 0
75.052582 10.195461 14.655046 -0.20455632 -0.97885484 0 0
45.437374 11.77558 0.78376001 0 0 -1 0
31.363888 30.160282 2.7648072 0.1651791 0.98626345 0.0004270905 0
47.218246 36.382683 15.783799 0 0 1 0
86.313339 10.51298 8.531333 0.61472243 -0.7887435 0 0
55.350258 21.293919 15.7838 0 -0 1 0
43.59708 7.2417898 15.7838 0 0 1 0
57.280708 4.6495299 4.5061007 0.56374454 -0.82594919 0 0
16.311106 13.587315 0.78376001 0 0 -1 0
51.182804 4.0416017 0.78376001 0 0 -1 0
24.724121 32.367367 15.711586 0.22684179 0.62586653 0.74621302 0
72.916718 17.568796 11.036101 -0.39156517 0.9201504 0 0
0.86670196 14.577778 0.78376007 0 0 -1 0
85.791595 10.225594 10.303782 0.39673972 -0.91793114 0 0
48.381557 26.670307 15.7838 0 0 1 0
2.2088141 13.96142 15.7838 0 0 1 0
22.217026 30.386768 13.870985 -0.94752479 0.31968224 0 0
52.610733 33.63089 0.78375995 0 0 -1 0
22.240805 30.165894 0.87192041 -0.63360435 0.21376686 -0.74353838 0
0.77124 12.752345 0.78376001 0 0 -1 0
20.819305 10.540823 7.6782069 -0.4578259 -0.88904178 0.00035818724 0
29.342577 10.603741 14.938879 -0.02600316 -0.99966061 -0.0015831864 0
38.265808 6.3280911 0.78376001 0 0 -1 0
60.17915 35.861664 5.1403356 0.94263583 0.33381999 -0.0013937337 0
64.888176 19.334476 0.78376007 0 0 -1 0
36.281548 6.5602012 0.78376001 0 0 -1 0
86.928101 13.462632 12.451344 1 0 0 0
34.392601 27.484995 15.7838 0 0 1 0
61.795242 23.177752 0.78375995 0 0 -1 0
74.062737 18.126602 11.781476 -0.39224759 0.91985977 -2.0173184e-05 0
23.366917 27.76273 15.7838 0 0 1 0
37.644444 22.84853 0.78376001 0 0 -1 0
29.659143 13.325124 15.7838 0 0 1 0
26.220581 11.750927 15.783799 0 -0 1 0
51.104786 1.775 0.96050173 0.28562313 -0.92283446 -0.25844908 0
76.119308 10.023689 3.1235757 -0.071937926 -0.99740916 0 0
70.480026 11.901744 15.076756 -0.059099164 -0.99825203 -0.00025026055 0
33.888462 31.015465 6.4899135 -0.77901131 0.62700987 0 0
3.2732623 17.819725 0.78376001 0 0 -1 0
38.434196 31.857176 15.7838 0 0 1 0
85.218933 10.032661 9.5887432 0.21353048 -0.9769364 0 0
78.686562 18.649 4.2858515 0 1 0 0
86.928101 12.602901 5.639205 1 0 0 0
86.928101 15.112117 10.588745 1 0 0 0
34.466499 20.874855 15.7838 0 0 1 0
26.061762 32.000748 8.2633705 0.34074026 0.94015741 0 0
22.67041 9.854187 11.997727 -0.20576261 -0.97860187 0 0
60.880123 8.712389 15.370368 0.84360224 -0.53696847 0 0
43.325378 27.266319 15.7838 0 -0 1 0
48.621681 1.2089694 10.403005 0.1646665 -0.98634797 0.0016252114 0
46.828636 42.902878 11.305418 0.21046641 0.97760105 0 0
66.393356 11.9168 7.3701725 0 -1 0 0
61.931259 10.257546 3.056608 0.78210998 -0.62313867 0.0014413686 0
40.437859 12.881474 0.78376007 0 0 -1 0
43.353119 42.351589 3.0761499 -0.54209244 0.8403185 -0.00076678523 0
0.12325901 15.550036 8.6704235 -1 0 0 0
44.002602 35.148174 15.7838 0 0 1 0
63.863243 11.625423 8.0788441 0.34601235 -0.93822938 -0.0010741748 0
0.123259 16.844164 6.3454757 -1 0 0 0
68.00795 11.9168 6.0177574 0 -1 0 0
20.939972 14.37864 0.78376007 0 0 -1 0
0.123259 15.711096 14.489559 -1 0 0 0
75.691971 10.065938 6.071341 -0.19770156 -0.98026216 -0.00044139003 0
45.419094 36.625828 15.7838 0 0 1 0
0.123259 14.562911 4.9709764 -1 0 0 0
82.354431 16.030157 15.7838 0 0 1 0
64.33947 22.552746 3.3437502 0.91215616 0.40983981 -0.0015806876 0
8.0247507 10.060113 0.8615973 0.0093330173 -0.29429218 -0.95566994 0
40.901802 39.728996 13.663487 -0.77901131 0.62700987 0 0
39.611748 1.9719162 3.3642206 -0.30906472 -0.95103818 -0.0023309768 0
0.12325899 12.282595 11.397201 -1 0 0 0
33.168224 30.448423 0.99547648 -0.48204714 0.83730316 -0.25798044 0
67.50666 17.765203 3.0465519 0.43404251 0.90088689 -0.003138531 0
58.747932 21.48884 0.78376001 0 0 -1 0
28.044453 19.501713 15.7838 0 0 1 0
2.4537978 15.88859 15.7838 0 0 1 0
55.24931 10.632988 0.78375995 0 0 -1 0
25.85643 15.871675 0.78375995 0 0 -1 0
54.642368 5.517108 15.7838 0 -0 1 0
22.205688 30.353159 14.685527 -0.94752479 0.31968224 0 0
38.691479 35.659065 15.7838 0 0 1 0
45.013077 30.0944 0.78375995 0 0 -1 0
42.481567 21.769291 0.78376001 0 0 -1 0
26.582497 10.186738 15.53856 0.28506011 -0.94367021 0.16800952 0
43.975483 8.3767805 15.7838 0 0 1 0
25.097683 9.8186855 2.7896786 0.14522614 -0.98939848 5.368299e-05 0
68.064415 14.094487 15.7838 0 0 1 0
51.06678 41.780727 6.8417311 0.31521708 0.94901955 0 0
48.618885 29.136042 15.7838 0 0 1 0
20.009871 23.844851 4.6030779 -0.94752479 0.31968224 0 0
75.530037 13.058845 15.7838 0 -0 1 0
43.383656 15.975263 0.78376001 0 0 -1 0
52.360565 33.807747 0.78376001 0 0 -1 0
59.145535 37.691292 8.2563133 0.73884875 0.67387128 -0 0
59.824951 7.14398 14.247019 0.79828793 -0.60227597 0 0
27.792747 14.671909 15.7838 0 0 1 0
65.321175 20.606649 4.1984959 0.88724279 0.46130258 0.00025032327 0
57.474724 4.8045626 12.197361 0.6593008 -0.75187922 0 0
76.033615 18.59004 6.9659405 -0.21393396 0.97684813 0 0
37.177494 22.040897 0.78376007 0 0 -1 0
70.64846 16.496248 0.78376001 0 0 -1 0
84.216797 18.649002 14.697466 0 1 -0 0
49.974907 23.447952 15.7838 0 -0 1 0
38.885086 36.85006 15.768745 -0.22905429 0.18479571 0.95571166 0
48.84964 20.134308 15.7838 0 -0 1 0
26.090313 10.046281 12.900395 0.23158374 -0.97281492 0 0
66.494812 11.9168 1.2224481 0 -1 0 0
6.7281742 9.9222832 6.271297 0.019088468 -0.99981779 0 0
17.971237 14.030057 15.7838 0 0 1 0
82.995506 18.649 13.584991 0 1 -0 0
22.763647 10.863941 0.78376001 0 0 -1 0
72.557503 11.259268 9.7808037 -0.43364477 -0.90108395 0 0
55.114815 30.516216 0.78376001 0 0 -1 0
19.216377 21.49297 11.777957 -0.94752479 0.31968224 0 0
18.802551 15.379061 15.7838 0 0 1 0
47.042931 1.0452205 7.3303151 0.066268533 -0.99780095 -0.0012981259 0
6.4667826 14.535238 15.7838 0 0 1 0
75.259659 10.152184 11.419724 -0.20455632 -0.97885484 0 0
60.854973 32.885296 15.283644 0.97697484 0.21335459 -0 0
37.521172 35.528828 9.5716467 -0.77901131 0.62700987 0 0
39.018635 16.243572 15.7838 0 0 1 0
36.181492 33.864376 2.542012 -0.77901131 0.62700987 0 0
63.523346 11.465731 2.3535895 0.42328313 -0.90599632 0.0014678299 0
76.894058 15.45911 0.78376007 0 0 -1 0
64.431824 14.08383 0.78376001 0 0 -1 0
76.336502 11.221945 0.78376001 0 0 -1 0
24.843586 32.442249 5.1359138 0.34074026 0.94015741 0 0
65.236687 20.76936 3.813518 0.88724279 0.46130258 0.00025032327 0
21.264158 10.835006 0.78375995 0 0 -1 0
13.231129 11.551584 15.7838 0 -0 1 0
53.273514 2.4775741 10.848869 0.36142403 -0.93240076 0.0012208143 0
62.369141 27.390137 9.3966675 0.93618745 0.35149845 0.0013970175 0
49.395035 29.495171 0.78375995 0 0 -1 0
82.679573 10.0047 4.5954185 0 -1 0 0
59.552879 6.8330121 11.420279 0.74684268 -0.6650008 0 0
49.143738 20.808001 0.78376001 0 0 -1 0
75.760849 10.052275 9.9397058 -0.078765415 -0.99689311 0.000278925 0
53.115314 25.283045 0.78376001 0 0 -1 0
35.167526 6.1064987 0.93314362 -0.58449095 -0.39829743 -0.70691544 0
41.181595 20.828573 15.783801 0 -0 1 0
44.05418 6.8749633 15.7838 0 0 1 0
9.9257402 9.9833307 11.802701 0.019088468 -0.99981779 0 0
22.554287 14.455284 0.78376001 0 0 -1 0
20.82575 26.263086 4.0675993 -0.94752479 0.31968224 0 0
24.817556 9.8308353 15.626859 0.061060753 -0.96419978 0.25805128 0
49.742466 33.243134 0.78376007 0 0 -1 0
52.73608 23.370106 0.78376001 0 0 -1 0
0.12325901 12.819984 7.9710369 -1 0 0 0
22.890944 21.869253 15.7838 0 0 1 0
45.580925 8.6206493 15.7838 0 0 1 0
11.752526 10.125422 5.0357518 0.26897505 -0.96314716 0 0
26.659466 17.226364 0.78376007 0 0 -1 0
52.204182 14.844093 0.78376001 0 0 -1 0
33.234772 8.7916698 11.956802 -0.67720926 -0.73579043 0 0
15.206797 11.708378 7.8617206 0.28806949 -0.95760953 0 0
26.711273 26.830841 15.7838 0 0 1 0
51.930733 9.6664 0.78376001 0 0 -1 0
59.633316 28.963694 15.783801 0 0 1 0
23.083241 14.186102 0.78376007 0 0 -1 0
51.492928 18.79879 0.78376001 0 0 -1 0
77.522812 10.0047 5.7083635 0 -1 0 0
37.979763 2.9566817 15.745428 -0.16257223 -0.20261872 0.96566862 0
4.6006899 18.888901 8.9000626 0 1 0 0
83.409607 15.330406 0.78376001 0 0 -1 0
30.11162 25.605789 15.7838 0 0 1 0
5.1404834 15.373314 0.78376001 0 0 -1 0
63.222515 19.469076 15.783801 0 -0 1 0
63.105995 25.264706 15.65432 0.65336931 0.27056718 0.70703751 0
72.520599 17.400234 7.6989865 -0.39156517 0.9201504 0 0
46.507248 42.962578 4.4753451 0.11610979 0.99323642 -0 0
44.139656 1.0692217 11.033573 -0.089277364 -0.99600601 0.0012648584 0
21.411819 28.000164 12.116959 -0.94752479 0.31968224 0 0
0.33810818 17.875536 13.059691 -0.87715691 0.48020077 -0.0017220152 0
38.285843 2.5984514 4.0656605 -0.50667995 -0.86213422 0 0
75.292473 18.427727 3.4191356 -0.21393396 0.97684813 0 0
36.610039 34.396816 9.7678471 -0.77901131 0.62700987 0 0
47.814728 24.336716 15.7838 0 -0 1 0
50.424519 25.496044 15.7838 0 -0 1 0
19.845299 11.168332 1.9227924 -0.58334762 -0.81222242 -0.00036059291 0
48.236626 42.541264 15.62486 0.25162706 0.93264973 0.25855032 0
25.668777 32.143173 12.22664 0.34074026 0.94015741 0 0
48.602112 28.26737 0.78376007 0 0 -1 0
47.019089 11.278681 15.7838 0 -0 1 0
62.421001 27.252522 9.263772 0.93618745 0.35149845 0.0013970175 0
36.165962 22.093052 15.7838 0 0 1 0
18.97868 17.717266 15.783799 0 0 1 0
68.877274 11.9168 5.9119358 0 -1 0 0
55.111053 24.838581 15.7838 0 0 1 0
25.665491 32.144367 14.286861 0.34074026 0.94015741 -0 0
54.362244 5.796474 15.7838 0 -0 1 0
58.782879 5.9682417 11.91025 0.74684268 -0.6650008 0 0
7.4306941 11.30552 0.78376001 0 0 -1 0
37.795547 35.869717 5.8443017 -0.77901131 0.62700987 0 0
7.7089758 11.481444 15.7838 0 0 1 0
48.913269 22.430464 0.78376001 0 0 -1 0
25.237305 9.8460855 3.3076084 0.22888088 -0.97345436 -0.00017285507 0
60.00975 7.3939123 1.0724945 0.77110696 -0.5818603 -0.25851998 0
86.8582 17.4487 10.893867 0.93768066 0.34749833 -0 0
60.373154 19.338556 15.7838 0 -0 1 0
3.3368134 18.888901 7.9712572 0 1 0 0
37.245316 14.96263 0.78376001 0 0 -1 0
10.147007 17.66337 15.783801 0 0 1 0
7.2936387 9.9330788 8.9939566 0.019088468 -0.99981779 0 0
16.308056 14.313622 0.78376001 0 0 -1 0
77.172318 10.0047 14.705856 0 -1 0 0
39.546638 21.087456 0.78376001 0 0 -1 0
43.886776 42.647202 3.7331295 -0.38162115 0.92431736 0.001628679 0
32.872253 23.857193 15.7838 0 0 1 0
19.420706 22.098587 6.8533654 -0.94752479 0.31968224 0 0
22.246765 16.1381 15.7838 0 0 1 0
36.430424 4.2408199 3.9179058 -0.79098541 -0.61183363 0.0013050695 0
21.229092 27.458567 8.8602943 -0.94752479 0.31968224 0 0
21.111925 27.111298 1.3757774 -0.94752479 0.31968224 0 0
56.304539 3.9958344 15.522631 0.54458529 -0.7978788 0.25848842 0
47.014004 34.131981 15.7838 0 0 1 0
58.414024 38.385044 2.835494 0.62950498 0.77699518 -0.0014255804 0
62.302841 27.582689 5.3733382 0.93618745 0.35149845 0.0013970175 0
28.234756 23.537193 15.783799 0 0 1 0
70.518616 11.901072 1.1627331 -0.06760022 -0.99771249 0 0
48.171116 11.906348 0.78376007 0 0 -1 0
51.344513 1.8109566 5.2301087 0.25969303 -0.96569115 0.00022085653 0
73.558067 10.770304 10.535533 -0.46005771 -0.88788909 0 0
25.978939 32.030766 4.8863688 0.34074026 0.94015741 0 0
42.630825 20.969723 15.7838 0 -0 1 0
60.474174 33.006584 15.7838 0 0 1 0
75.795059 10.049185 8.5569592 -0.078765415 -0.99689311 0.000278925 0
46.448845 1.0112232 6.0328565 0.040157352 -0.99919254 0.0012776545 0
32.25716 21.33268 15.7838 0 0 1 0
45.484646 20.149721 15.7838 0 -0 1 0
2.0871265 18.888901 13.758359 0 1 0 0
9.8580456 11.145183 15.7838 0 0 1 0
43.122421 27.754738 15.783801 0 -0 1 0
6.1316919 18.888901 6.758234 0 1 0 0
35.469971 5.5878301 4.5544295 -0.82572371 -0.56407475 0 0
44.329887 27.353443 15.7838 0 -0 1 0
43.609028 22.356956 15.7838 0 -0 1 0
21.931377 14.543769 15.7838 0 -0 1 0
85.613853 14.243583 0.78376001 0 0 -1 0
42.568684 2.7314513 0.78376001 0 0 -1 0
28.055332 10.546255 14.656599 0.13905838 -0.99028319 -0.0013769439 0
8.3647985 9.9535294 4.4743953 0.019088468 -0.99981779 0 0
54.436241 39.353642 15.7838 0 0 1 0
36.490402 34.248177 7.5787482 -0.77901131 0.62700987 0 0
33.012295 30.035845 0.78375995 0 0 -1 0
32.073772 30.14463 8.5331898 -0.10022289 0.99496472 -0.00086415722 0
59.274673 31.699362 15.7838 0 0 1 0
36.164539 4.5803313 6.9308348 -0.78109521 -0.62441188 0 0
13.114115 17.200413 0.78376007 0 0 -1 0
40.138058 25.663157 0.78376001 0 0 -1 0
21.368443 27.871605 5.3555584 -0.94752479 0.31968224 0 0
59.519543 6.7955666 10.450592 0.74684268 -0.6650008 0 0
62.277889 27.676222 13.231299 0.95432925 0.29875484 -0.0010950044 0
57.457237 34.577919 15.7838 0 0 1 0
3.0251594 9.8515854 7.324892 0.019088468 -0.99981779 0 0
3.8364372 9.867074 10.701719 0.019088468 -0.99981779 0 0
19.987547 23.77869 5.246882 -0.94752479 0.31968224 0 0
39.079552 3.3510518 15.7838 0 0 1 0
37.206856 10.65988 0.78376001 0 0 -1 0
44.988266 6.5094161 0.78376001 0 0 -1 0
51.738968 19.884281 15.7838 0 -0 1 0
44.611935 23.030615 15.7838 0 -0 1 0
54.817749 16.56736 0.78376001 0 0 -1 0
79.404495 10.0047 9.6703129 0 -1 0 0
0.21473818 11.19536 3.0270314 -0.95982355 -0.28060305 -0.0008169908 0
22.061005 21.556805 0.78376001 0 0 -1 0
54.576515 27.379789 0.78376001 0 0 -1 0
45.209751 43.013641 5.0670948 -0.047599263 0.99886584 0.0012122713 0
54.661652 38.140991 15.7838 0 0 1 0
64.626572 21.941895 5.5465784 0.88724279 0.46130258 0.00025032327 0
19.372564 21.955904 6.5494213 -0.94752479 0.31968224 0 0
46.001724 22.594311 15.7838 0 -0 1 0
43.483093 25.235432 0.78376001 0 0 -1 0
43.697338 32.629837 0.78376001 0 0 -1 0
30.874775 29.432863 0.78376001 0 0 -1 0
43.789425 41.243801 0.78376001 0 0 -1 0
0.12325899 13.158471 14.710745 -1 0 0 0
43.102165 10.466413 15.7838 0 0 1 0
5.5184479 9.8991871 2.5571723 0.019088468 -0.99981779 0 0
38.541843 36.796932 7.4768844 -0.77901131 0.62700987 0 0
24.718864 15.394368 15.7838 0 0 1 0
81.4888 18.649 15.379357 0 1 -0 0
47.431431 2.1122859 0.78375995 0 0 -1 0
27.049843 31.642637 4.2137246 0.34074026 0.94015741 0 0
36.673363 14.889774 0.78376001 0 0 -1 0
24.56966 17.072426 0.78376001 0 0 -1 0
52.913025 11.099194 0.78375995 0 0 -1 0
45.902218 6.7655811 0.78376001 0 0 -1 0
48.630226 42.474197 14.047909 0.26049218 0.96547592 -0 0
61.524117 28.891113 0.78376001 0 0 -1 0
59.668148 30.969994 15.7838 0 0 1 0
40.102085 26.544758 15.783799 0 -0 1 0
57.415642 6.9488754 15.7838 0 -0 1 0
74.214752 10.467634 7.6597052 -0.34680963 -0.93793553 7.8984725e-05 0
49.306953 2.6372719 0.78376001 0 0 -1 0
65.421318 12.305156 0.78376001 0 0 -1 0
8.9921856 9.9655075 4.0878944 0.019088468 -0.99981779 0 0
16.965942 16.619081 15.7838 0 0 1 0
0.123259 13.93228 7.2348418 -1 0 0 0
47.124985 42.839077 13.990061 0.21046641 0.97760105 -0 0
23.36507 30.988237 0.78376007 0 0 -1 0
49.869171 40.207523 0.78375995 0 0 -1 0
73.940346 18.074486 14.94416 -0.39224759 0.91985977 -2.0173184e-05 0
68.391022 17.454044 6.7336273 0.53347176 0.84556454 0.020700771 0
49.063076 1.2903999 15.10151 0.1646665 -0.98634797 0.0016252114 0
33.476036 30.658754 9.0936918 -0.55878776 0.82931018 -0.00085227162 0
19.945351 23.653618 1.5711081 -0.94752479 0.31968224 0 0
53.700974 13.357731 0.78376001 0 0 -1 0
19.229368 11.549419 11.64748 -0.41489366 -0.90986991 0 0
62.467384 27.150124 3.946208 0.93618745 0.35149845 0.0013970175 0
34.048817 12.408422 15.7838 0 0 1 0
20.859955 10.521979 12.862927 -0.4578259 -0.88904178 0.00035818724 0
38.085243 31.988895 0.78375995 0 0 -1 0
19.564659 11.369594 4.3732257 -0.58691651 -0.80964744 0 0
31.771509 10.569045 15.7838 0 0 1 0
0.7704671 14.753582 0.78376007 0 0 -1 0
45.630501 43.028305 6.0692587 -0.023465423 0.99972463 8.3314888e-05 0
69.150169 11.9168 11.197803 0 -1 0 0
64.558113 11.833305 6.0618482 0.25154087 -0.96784568 0.0013910177 0
25.372135 32.250687 3.3029883 0.34074026 0.94015741 0 0
25.438152 9.8930082 5.0055723 0.22888088 -0.97345436 -0.00017285507 0
20.321367 24.768112 12.493996 -0.94752479 0.31968224 0 0
41.304489 26.551762 0.78375995 0 0 -1 0
83.035988 18.649 9.1300192 0 1 -0 0
60.085712 31.793755 0.78376007 0 0 -1 0
38.15313 36.299973 15.535373 -0.76799208 0.61814409 0.16758879 0
0.12325901 16.005701 11.613229 -1 0 0 0
52.47361 5.1255293 0.78376001 0 0 -1 0
1.2560461 9.9966135 10.089695 -0.2755546 -0.96128476 -0.0011485176 0
70.153648 17.167126 0.89036083 0.044867996 0.66310114 -0.74718386 0
38.79221 12.647017 15.7838 0 0 1 0
81.51992 13.994801 0.78376001 0 0 -1 0
36.532574 21.349909 0.78376007 0 0 -1 0
60.031361 36.267536 12.395947 0.89226913 0.45150194 0.0013224037 0
55.450741 30.633717 0.78376001 0 0 -1 0
34.909451 32.283966 6.8418159 -0.77901131 0.62700987 0 0
23.427828 32.437206 0.93913978 -0.54523909 0.79855132 -0.25501001 0
21.371754 10.260102 14.941691 -0.45709983 -0.88941485 -0.00099361851 0
16.493742 11.7486 12.531715 0 -1 0 0
47.424595 1.0764656 2.7974117 0.066268533 -0.99780095 -0.0012981259 0
39.637642 32.502945 0.78376007 0 0 -1 0
54.545612 3.0467849 15.584783 0.41154194 -0.88155508 0.23128749 0
11.966745 10.195867 9.1772223 0.42268285 -0.9062776 0 0
82.822632 18.649 3.5511734 0 1 0 0
0.36273912 12.788342 15.769495 -0.29483071 -0.0008050605 0.95554918 0
38.902039 19.475237 15.783801 0 0 1 0
50.719402 36.668457 15.7838 0 0 1 0
33.942333 31.082396 5.310966 -0.77901131 0.62700987 0 0
22.169153 30.244879 13.125074 -0.94752479 0.31968224 0 0
32.742004 24.26553 15.7838 0 0 1 0
12.407698 18.640535 12.212306 0.3054035 0.952223 0.00017387676 0
39.185524 37.596661 2.8155293 -0.77901131 0.62700987 0 0
19.356987 11.491225 9.491991 -0.41489366 -0.90986991 0 0
50.106079 2.501601 0.78375995 0 0 -1 0
44.272285 5.7135043 0.78376001 0 0 -1 0
8.246891 18.888901 4.6969743 0 1 0 0
85.364502 18.61805 10.726436 0.1944228 0.98091716 0.0011138339 0
64.419647 11.794039 3.779609 0.25154087 -0.96784568 0.0013910177 0
54.216454 32.853947 0.78376001 0 0 -1 0
60.234413 35.719074 9.4602909 0.95041072 0.31099775 -0 0
29.329464 10.61556 7.6917496 -0.02600316 -0.99966061 -0.0015831864 0
34.381393 23.601095 0.78376001 0 0 -1 0
83.545609 13.930778 15.7838 0 0 1 0
75.110703 13.30903 15.783801 0 -0 1 0
40.459885 11.95225 0.78375995 0 0 -1 0
29.545986 20.24752 15.7838 0 0 1 0
53.448975 5.4509869 15.7838 0 -0 1 0
62.248035 10.596214 12.647623 0.73397261 -0.67917764 -0.0013801187 0
35.215569 8.4517431 15.783799 0 0 1 0
57.193382 26.329163 15.7838 0 0 1 0
73.027039 17.615742 9.1424675 -0.39156517 0.9201504 0 0
35.151321 9.367342 15.7838 0 0 1 0
7.4606915 9.9362679 11.564083 0.019088468 -0.99981779 0 0
83.277763 18.649 14.031663 0 1 -0 0
43.39336 42.377468 2.9857178 -0.54209244 0.8403185 -0.00076678523 0
83.615631 18.649 2.2557735 0 1 0 0
45.903801 43.03212 2.9216275 0.1145013 0.9934231 -7.9896272e-05 0
21.546392 24.749409 0.78375995 0 0 -1 0
62.364258 27.398521 10.555645 0.93618745 0.35149845 0.0013970175 0
44.860481 14.805668 15.7838 0 -0 1 0
57.722557 19.966133 0.78376001 0 0 -1 0
55.050461 40.233418 2.6031246 0.43954095 0.89822257 0 0
54.862286 17.283861 15.7838 0 -0 1 0
60.377632 35.249344 5.3130655 0.98484457 0.17343906 0 0
37.222679 22.312521 15.7838 0 0 1 0
63.196468 25.211308 3.1810217 0.93618745 0.35149845 0.0013970175 0
59.731197 33.213936 0.78376001 0 0 -1 0
31.359705 21.805637 0.78375995 0 0 -1 0
23.11956 32.272884 7.0844731 -0.56367016 0.82599998 0 0
56.37928 39.583164 6.6669149 0.43954095 0.89822257 -0 0
49.382748 5.6221485 0.78375995 0 0 -1 0
36.681679 30.873188 15.7838 0 0 1 0
83.976059 10.0047 5.1783934 0 -1 0 0
44.445015 42.860249 10.474861 -0.19974023 0.97984886 0 0
55.579567 20.409595 15.7838 0 -0 1 0
37.867149 26.644238 0.78376001 0 0 -1 0
34.62804 28.468126 15.7838 0 -0 1 0
41.025738 39.88298 13.690382 -0.77901131 0.62700987 0 0
37.658329 3.0141656 15.251009 -0.62579668 -0.7799862 0.00023860196 0
52.296654 33.163834 15.7838 0 0 1 0
25.058924 32.168987 15.754383 0.13165019 0.3571662 0.92471647 0
22.07073 29.64711 0.86770111 -0.63360435 0.21376686 -0.74353838 0
17.770279 18.224825 6.9653997 -0.68292063 0.73049253 0 0
46.075043 43.012611 5.7853823 0.1145013 0.9934231 -7.9896272e-05 0
6.6180449 12.450197 15.7838 0 0 1 0
28.416401 31.147358 5.3210025 0.34074026 0.94015741 0 0
42.783695 12.957503 0.78376001 0 0 -1 0
41.606915 7.467206 0.78376001 0 0 -1 0
19.918816 22.181696 15.7838 0 0 1 0
16.071075 13.322026 15.7838 0 0 1 0
61.078789 31.860397 5.3050766 0.97697484 0.21335459 -0 0
47.41888 12.675193 0.78376001 0 0 -1 0
21.548908 10.188515 11.482623 -0.30503646 -0.95234013 0.00099499442 0
0.28890035 17.743237 13.215775 -0.94349194 0.3313911 0.0016869628 0
30.004162 11.844536 15.7838 0 0 1 0
2.3933969 18.888901 6.6124501 0 1 0 0
27.357922 10.408687 3.2278774 0.22279781 -0.97486353 0.0015026176 0
45.90519 12.133261 15.7838 0 -0 1 0
19.609306 22.657593 6.19173 -0.94752479 0.31968224 0 0
37.881607 30.450254 0.78375995 0 0 -1 0
63.101978 22.239553 15.7838 0 -0 1 0
28.872692 13.261227 15.7838 0 0 1 0
59.396255 37.360538 5.0617232 0.83416307 0.5515179 0 0
31.143665 14.717558 0.78376001 0 0 -1 0
75.875885 18.555496 9.5224018 -0.21393396 0.97684813 0 0
60.154533 25.90568 15.7838 0 0 1 0
24.904724 29.847885 15.7838 0 0 1 0
52.490601 20.385181 0.78376001 0 0 -1 0
28.694218 21.308645 15.7838 0 0 1 0
67.850662 15.358981 15.7838 0 0 1 0
51.182083 1.7651629 4.3913078 0.29564324 -0.95529836 0.00021901354 0
33.133484 20.973072 15.7838 0 0 1 0
67.805466 11.9168 15.393539 0 -1 0 0
64.884903 17.17688 15.7838 0 0 1 0
54.995239 40.260441 2.1002693 0.43954095 0.89822257 0 0
34.821064 6.5377316 9.9442673 -0.82572371 -0.56407475 0 0
31.354347 30.15099 14.753708 0.1945972 0.98088223 0.0013781342 0
43.349815 42.356594 10.895168 -0.54209244 0.8403185 -0.00076678523 0
63.186401 22.81356 15.7838 0 0 1 0
46.849964 3.1614897 15.7838 0 -0 1 0
3.3423119 9.8576403 2.512836 0.019088468 -0.99981779 0 0
55.155849 39.187714 0.78375995 0 0 -1 0
28.949245 17.48312 15.7838 0 0 1 0
42.030514 13.559931 0.78376001 0 0 -1 0
5.851388 9.9055433 5.8150048 0.019088468 -0.99981779 0 0
32.166779 30.151466 2.2767949 -0.054592565 0.99850833 0.00086399226 0
75.048599 10.998402 15.7838 0 -0 1 0
44.762741 36.63208 0.78376001 0 0 -1 0
35.553154 9.3208809 15.7838 0 0 1 0
35.550243 24.804457 15.7838 0 0 1 0
55.676006 31.121517 15.7838 0 0 1 0
23.950144 30.044933 15.7838 0 0 1 0
31.074316 30.205523 13.774595 0.19464037 0.98087466 0 0
41.928261 14.483259 0.78376001 0 0 -1 0
4.695085 18.888901 8.5730057 0 1 0 0
8.5524673 17.592285 15.7838 0 0 1 0
29.129856 30.888781 12.436674 0.34074026 0.94015741 -0 0
58.601471 37.326637 15.783801 0 0 1 0
35.807236 6.6195359 15.7838 0 0 1 0
12.209894 10.309269 3.7308919 0.42268285 -0.9062776 0 0
69.42971 11.9168 1.9177868 0 -1 0 0
26.838993 27.399612 0.78376001 0 0 -1 0
41.021885 30.751068 15.7838 0 0 1 0
19.450802 12.881492 15.7838 0 0 1 0
30.197977 23.085859 0.78376001 0 0 -1 0
61.80201 13.096809 0.78375995 0 0 -1 0
61.104485 31.742735 5.7571726 0.97697484 0.21335459 -0 0
54.529217 12.634507 15.7838 0 -0 1 0
11.112692 10.9515 15.7838 0 0 1 0
55.340897 24.01244 15.7838 0 -0 1 0
41.070751 29.234581 15.7838 0 0 1 0
80.569618 11.491968 15.7838 0 0 1 0
79.056503 18.649002 7.7298813 0 1 0 0
10.539601 18.888901 12.276444 0 1 -0 0
77.672806 18.649 14.256707 0 1 -0 0
36.048054 33.698589 4.8737955 -0.77901131 0.62700987 0 0
31.872635 11.724268 0.78376001 0 0 -1 0
60.099258 36.119068 12.758018 0.94263583 0.33381999 -0.0013937337 0
26.795055 27.051071 15.7838 0 0 1 0
64.188477 17.742191 0.78376001 0 0 -1 0
23.396027 28.038807 0.78376001 0 0 -1 0
59.600796 33.105251 0.78376001 0 0 -1 0
80.141235 18.649 7.1927967 0 1 0 0
40.74873 22.343443 0.78376007 0 0 -1 0
12.614237 10.507054 13.209784 0.42664117 -0.90442103 0 0
54.86647 3.1729722 13.347608 0.43023866 -0.90271521 0 0
63.482548 24.502445 12.700736 0.92391902 0.38258478 -0.0015811869 0
35.940868 4.8985023 2.1838274 -0.82572371 -0.56407475 0 0
42.051437 27.422541 15.7838 0 -0 1 0
43.214569 1.1714289 8.4309597 -0.14555736 -0.98934966 -0.00051595853 0
30.851923 30.264654 6.3256693 0.34074026 0.94015741 -0 0
77.47345 16.396723 15.7838 0 0 1 0
81.7827 13.020577 15.7838 0 0 1 0
83.841835 18.649 7.0195646 0 1 -0 0
44.906025 40.162239 15.7838 0 0 1 0
44.880993 14.602956 15.7838 0 -0 1 0
19.716377 22.974945 10.128519 -0.94752479 0.31968224 0 0
51.436699 41.657856 1.1313621 0.31521708 0.94901955 0 0
36.564205 34.33987 4.1938019 -0.77901131 0.62700987 0 0
54.185467 40.456333 0.83897138 0.2630989 0.65660471 -0.70685863 0
76.393677 12.771513 15.7838 0 -0 1 0
45.189438 12.756107 15.7838 0 -0 1 0
10.397926 9.9923458 8.2869463 0.019088468 -0.99981779 0 0
40.840717 39.653107 14.959866 -0.77901131 0.62700987 0 0
63.224411 13.689776 0.78376001 0 0 -1 0
37.076748 21.886864 0.78376007 0 0 -1 0
3.1397014 15.404527 15.7838 0 0 1 0
54.910187 19.598764 0.78375995 0 0 -1 0
47.36755 29.659864 0.78376001 0 0 -1 0
29.620041 11.744971 15.7838 0 0 1 0
60.459587 34.851608 2.4190969 0.97907478 0.20348959 0.0021364789 0
27.852581 28.835655 15.7838 0 0 1 0
25.943508 10.011333 10.493566 0.23158374 -0.97281492 0 0
13.15926 12.180889 15.7838 0 -0 1 0
60.718868 9.3679247 0.78375995 0 0 -1 0
59.092758 18.538343 15.7838 0 -0 1 0
0.12325899 15.388589 9.8810997 -1 0 0 0
44.245358 1.0642424 12.858016 -0.057765771 -0.9983294 0.0012377619 0
18.818447 20.313522 4.5549583 -0.94752479 0.31968224 0 0
45.427246 15.219663 15.7838 0 -0 1 0
51.772953 9.9726734 0.78376001 0 0 -1 0
78.721024 18.649 6.8409066 0 1 0 0
29.442656 27.436569 0.78376001 0 0 -1 0
25.584103 32.070892 15.698819 0.22684179 0.62586653 0.74621302 0
60.184616 27.453579 0.78376001 0 0 -1 0
6.9933357 9.9389076 1.0244567 0.019467972 -0.96578407 -0.25861597 0
41.834156 5.837615 15.783799 0 -0 1 0
39.904327 35.197231 0.78376007 0 0 -1 0
79.43837 18.645367 1.0624341 0 0.98580176 -0.16791348 0
15.040241 11.651681 6.062346 0.42168748 -0.90674126 0.00017363526 0
48.338737 1.6301129 15.7838 0 -0 1 0
45.856514 37.03772 0.78376001 0 0 -1 0
25.990017 24.395641 0.78376007 0 0 -1 0
29.311375 12.309759 0.78375995 0 0 -1 0
0.12325899 13.209716 2.6694169 -1 0 0 0
60.775963 33.247093 13.181418 0.97697484 0.21335459 -0 0
4.2876639 12.037371 0.78376001 0 0 -1 0
42.410965 37.463398 0.78376001 0 0 -1 0
86.928101 13.877266 13.845763 1 0 0 0
45.542709 18.650385 15.7838 0 -0 1 0
14.603034 12.237922 0.78376001 0 0 -1 0
17.923172 11.7486 9.6631718 0 -1 0 0
37.408741 35.389141 3.9078979 -0.77901131 0.62700987 0 0
57.926899 38.741177 14.116838 0.53113419 0.8472864 0.0014743973 0
54.379372 2.9372599 9.9834576 0.43022883 -0.90271974 0.00058450375 0
26.619217 31.79871 4.6672955 0.34074026 0.94015741 0 0
31.990273 9.7444706 2.7609229 -0.51654124 -0.85626119 0.0013743975 0
31.951153 20.519258 15.7838 0 0 1 0
45.665867 9.2153044 0.78376001 0 0 -1 0
8.8619843 9.9630222 2.4506736 0.019088468 -0.99981779 0 0
65.349876 20.551043 4.9548612 0.88724279 0.46130258 0.00025032327 0
7.0087194 18.888901 14.012477 0 1 -0 0
39.040882 37.416946 14.356482 -0.77901131 0.62700987 0 0
74.69664 10.289934 9.3559971 -0.34563357 -0.93836963 0 0
52.144852 2.0494113 9.396903 0.29565525 -0.95529354 -0.001489582 0
19.625834 11.32525 11.121563 -0.58691651 -0.80964744 0 0
51.63681 2.016073 15.713634 0.18374567 -0.6832093 0.70672667 0
9.0774498 18.888901 10.883267 0 1 -0 0
28.427235 13.742939 0.78376001 0 0 -1 0
59.347134 37.440483 13.931147 0.81498671 0.57947832 -0.0012643192 0
15.372428 17.628174 14.072248 0.21543428 0.97651833 -0 0
78.08017 10.0047 10.800723 0 -1 0 0
60.58762 18.824986 0.78376001 0 0 -1 0
11.539703 10.066009 3.8668849 0.26888272 -0.96317297 0 0
36.213768 5.2004352 0.78376001 0 0 -1 0
44.549229 14.606912 15.7838 0 -0 1 0
78.807747 13.013399 15.7838 0 0 1 0
18.962334 11.627273 7.6373911 -0.18678975 -0.98239547 0.0029249934 0
54.171349 40.607285 12.987398 0.37192774 0.9282617 -0 0
49.47348 22.087996 15.7838 0 -0 1 0
53.466461 38.920139 0.78376001 0 0 -1 0
22.990435 23.596512 15.7838 0 0 1 0
40.26096 17.989151 0.78376001 0 0 -1 0
7.6009192 18.888901 11.847692 0 1 -0 0
0.12325899 15.727451 10.303132 -1 0 0 0
20.622894 23.431602 0.78376001 0 0 -1 0
39.298401 17.60265 0.78376001 0 0 -1 0
39.631477 3.7804768 0.78375995 0 0 -1 0
45.762161 37.409454 0.78375995 0 0 -1 0
20.38632 24.960634 11.368307 -0.94752479 0.31968224 0 0
33.968391 13.702671 0.78376001 0 0 -1 0
10.7257 9.9986038 3.0511723 0.019088468 -0.99981779 0 0
42.972191 19.599064 0.78376007 0 0 -1 0
62.781403 19.319805 0.78376001 0 0 -1 0
51.412579 1.829313 5.4545803 0.25969303 -0.96569115 0.00022085653 0
19.670174 11.293109 11.564356 -0.58691651 -0.80964744 0 0
20.671028 13.72629 0.78375995 0 0 -1 0
32.067741 30.148233 13.380743 -0.10022289 0.99496472 -0.00086415722 0
85.063499 17.241051 0.78376001 0 0 -1 0
63.169823 24.907944 0.83932954 0.66217446 0.24863362 -0.70689911 0
14.175781 12.330564 0.78376001 0 0 -1 0
35.184288 6.0060272 9.7022247 -0.82572371 -0.56407475 0 0
80.068024 16.787649 15.7838 0 0 1 0
62.370552 23.743176 0.78376007 0 0 -1 0
57.198555 4.5934606 1.5944285 0.56374454 -0.82594919 0 0
40.328068 22.552845 15.7838 0 -0 1 0
63.37289 20.286608 0.78376007 0 0 -1 0
22.659378 31.693533 3.0601132 -0.88963127 0.45667949 0 0
78.389 18.649 7.0471253 0 1 0 0
43.681664 40.550156 15.7838 0 0 1 0
83.429398 18.649 13.213566 0 1 -0 0
61.548065 30.055365 9.5545425 0.9600817 0.27971148 0.0021819291 0
46.148911 43.003891 3.2017522 0.1145013 0.9934231 -7.9896272e-05 0
2.4875326 9.841321 6.0342574 0.019088468 -0.99981779 0 0
86.928101 15.618997 12.396721 1 0 0 0
80.579956 10.0047 13.866328 0 -1 0 0
84.176369 10.0047 13.15371 0 -1 0 0
84.44902 18.649002 4.2260447 0 1 -0 0
8.9118433 17.425501 0.78376001 0 0 -1 0
31.73103 19.58486 0.78376007 0 0 -1 0
44.828705 23.367756 0.78376001 0 0 -1 0
74.605278 18.277229 13.126506 -0.21393396 0.97684813 0 0
53.915813 2.7308958 13.960327 0.37991273 -0.92502189 -0.00096065394 0
7.1060948 18.888901 7.5479889 0 1 -0 0
10.769587 18.014277 0.78376001 0 0 -1 0
37.252365 25.719074 15.7838 0 0 1 0
21.411547 10.374203 0.86774683 -0.31186634 -0.63645864 -0.70545012 0
39.824951 35.701649 0.78376001 0 0 -1 0
61.970833 10.293924 13.988257 0.73397261 -0.67917764 -0.0013801187 0
0.123259 17.042999 2.1692228 -1 0 0 0
41.372597 40.313927 7.8575678 -0.77901131 0.62700987 0 0
36.20332 33.891499 10.56283 -0.77901131 0.62700987 0 0
5.153337 18.888901 9.539752 0 1 0 0
30.743103 30.304092 8.8888855 0.34074026 0.94015741 -0 0
61.438408 30.453016 6.8259697 0.9600817 0.27971148 0.0021819291 0
36.244881 33.943138 4.4593649 -0.77901131 0.62700987 0 0
39.748596 24.40844 15.7838 0 -0 1 0
48.29425 25.891602 0.78376001 0 0 -1 0
0.12325899 15.258623 7.2232437 -1 0 0 0
45.318916 15.765278 15.7838 0 -0 1 0
34.581955 6.8877573 13.188902 -0.82572371 -0.56407475 0 0
20.942822 10.4789 7.5907917 -0.44004148 -0.89797688 -0.00099394331 0
18.210644 11.748601 3.7433138 0 -1 0 0
19.46559 19.872551 15.7838 0 0 1 0
34.615143 6.8391781 3.1629035 -0.82572371 -0.56407475 0 0
86.928101 12.814575 4.4657192 1 0 0 0
35.951145 4.8834677 1.7178814 -0.82572371 -0.56407475 0 0
52.134079 18.046631 0.78375995 0 0 -1 0
49.912415 1.8741568 0.78376001 0 0 -1 0
81.711502 15.996798 15.7838 0 0 1 0
27.060303 29.895908 0.78376001 0 0 -1 0
10.469379 15.924851 0.78376001 0 0 -1 0
50.613789 18.381357 0.78376001 0 0 -1 0
22.650591 9.8583536 14.060024 -0.20576261 -0.97860187 0 0
33.05135 9.2538328 15.761358 -0.17949885 -0.18696591 0.96582812 0
72.561241 17.417524 1.782701 -0.39156517 0.9201504 0 0
68.184944 11.9168 12.52836 0 -1 0 0
49.89143 41.554661 0.78376001 0 0 -1 0
42.542068 41.724453 15.391371 -0.66789782 0.74425292 8.9935551e-05 0
37.665543 27.22802 0.78376001 0 0 -1 0
41.402145 1.4905295 9.582778 -0.20944998 -0.97781932 0 0
27.425602 20.000572 0.78376007 0 0 -1 0
50.126308 23.696201 0.78376007 0 0 -1 0
35.554379 33.085243 2.0288606 -0.77901131 0.62700987 0 0
33.472637 8.5116405 10.079969 -0.82572371 -0.56407475 0 0
36.645061 29.822254 15.7838 0 -0 1 0
60.974747 32.33683 14.333672 0.97697484 0.21335459 -0 0
59.544479 20.831242 0.78376001 0 0 -1 0
18.951672 11.610329 1.2655895 -0.18678975 -0.98239547 0.0029249934 0
51.133209 37.232552 0.78375995 0 0 -1 0
18.107632 18.560066 7.8932862 -0.78437304 0.62028933 0 0
49.166801 15.005074 0.78376001 0 0 -1 0
59.161423 18.739241 0.78376001 0 0 -1 0
49.839481 11.603103 15.7838 0 -0 1 0
43.254452 42.297546 15.179176 -0.56074071 0.82799107 -0.00076624786 0
37.064568 17.964741 15.7838 0 0 1 0
27.798784 23.526894 15.7838 0 0 1 0
39.474094 24.268536 15.7838 0 -0 1 0
58.310452 35.341904 15.7838 0 0 1 0
55.376152 3.4200373 10.522387 0.49540636 -0.86866134 0 0
50.293583 24.059408 0.78376007 0 0 -1 0
0.12325899 17.048923 3.1619868 -1 0 0 0
60.066074 30.574905 15.7838 0 0 1 0
0.1433181 17.331266 4.8560424 -0.96249819 0.27128807 0 0
78.733147 10.0047 7.4624605 0 -1 0 0
39.618851 24.313652 15.7838 0 -0 1 0
35.283699 32.409172 15.765387 -0.29928699 0.24226809 0.92289406 0
36.359367 4.9032288 15.7838 0 0 1 0
42.332169 19.322401 15.7838 0 -0 1 0
61.07428 9.0174179 1.880929 0.84360224 -0.53696847 0 0
72.06485 17.224737 13.36809 -0.26930678 0.96305448 0 0
61.930958 10.25633 2.6927958 0.78210998 -0.62313867 0.0014413686 0
76.726921 10.0047 2.6661861 0 -1 0 0
53.144402 12.374233 0.78376001 0 0 -1 0
47.492634 1.6741029 0.78375995 0 0 -1 0
21.646511 28.695782 13.454253 -0.94752479 0.31968224 0 0
58.223083 27.538368 15.783801 0 0 1 0
30.298996 25.270256 15.7838 0 0 1 0
25.722244 23.654009 0.78376001 0 0 -1 0
8.9344349 18.170713 0.78375995 0 0 -1 0
17.677429 18.138023 8.6712875 -0.68292063 0.73049253 0 0
72.405121 11.332603 11.844337 -0.43364477 -0.90108395 0 0
37.474163 10.559787 15.7838 0 0 1 0
44.271027 1.0599109 10.562645 -0.057765771 -0.9983294 0.0012377619 0
62.561104 10.893426 15.549194 0.6067816 -0.75175548 0.25822425 0
29.660576 10.962724 15.7838 0 0 1 0
28.229836 15.817813 15.7838 0 0 1 0
12.506549 10.456255 10.497951 0.42664117 -0.90442103 0 0
73.442825 17.794086 13.903644 -0.55496299 0.83187509 0 0
66.194977 19.036526 9.0426807 0.83117771 0.55600673 -0.00022924287 0
56.083584 26.536316 15.7838 0 0 1 0
0.92930955 10.150064 3.904614 -0.58786303 -0.80896026 0.00072001293 0
52.465496 2.1675777 13.302941 0.36142403 -0.93240076 0.0012208143 0
60.834194 29.593382 0.78376001 0 0 -1 0
22.293148 30.612385 10.382967 -0.94752479 0.31968224 0 0
56.732613 33.223946 15.783801 0 0 1 0
48.796162 6.0799007 15.7838 0 0 1 0
1.6519254 10.87665 0.78376001 0 0 -1 0
2.9736629 18.888901 1.9588313 0 1 0 0
3.8769159 16.167473 15.7838 0 0 1 0
86.928101 13.575302 10.419445 1 0 0 0
42.32 1.3062578 2.2645524 -0.14555736 -0.98934966 -0.00051595853 0
57.155334 39.203407 3.3454275 0.43954095 0.89822257 -0 0
65.554459 20.157454 9.1416264 0.88669342 0.46235785 -0 0
65.142822 20.950531 2.6247258 0.88724279 0.46130258 0.00025032327 0
46.857262 42.896713 4.271883 0.21046641 0.97760105 0 0
44.433155 15.829221 0.78376001 0 0 -1 0
36.408134 18.009552 0.78376007 0 0 -1 0
42.912086 1.2171042 6.1831617 -0.14555736 -0.98934966 -0.00051595853 0
36.887672 32.069061 15.7838 0 0 1 0
51.131752 20.971359 15.7838 0 -0 1 0
20.410561 25.03248 6.362359 -0.94752479 0.31968224 0 0
60.079933 36.156464 8.6432896 0.94263583 0.33381999 -0.0013937337 0
57.112244 30.849785 15.7838 0 0 1 0
11.566448 11.056423 0.78376001 0 0 -1 0
37.372425 27.28833 15.7838 0 -0 1 0
27.340639 28.625839 15.7838 0 0 1 0
51.323723 41.695381 14.893208 0.31521708 0.94901955 -0 0
80.597809 16.234417 15.7838 0 0 1 0
27.002438 29.019569 15.783801 0 0 1 0
74.667183 18.290787 6.0499673 -0.21393396 0.97684813 0 0
27.118088 24.064089 15.7838 0 0 1 0
9.3627605 9.9725819 4.2322221 0.019088468 -0.99981779 0 0
14.52271 12.031111 15.7838 0 -0 1 0
35.874016 15.130926 0.78375995 0 0 -1 0
36.740017 12.376934 15.7838 0 0 1 0
36.471844 4.1959143 12.518663 -0.78109521 -0.62441188 0 0
70.252861 11.917013 5.8749704 -0.0016863304 -0.99999857 0.00017507189 0
0.44255996 18.02487 4.4319677 -0.87712294 0.48026583 -0.00021301192 0
45.293076 15.524906 15.7838 0 -0 1 0
72.386139 11.341734 14.337749 -0.43364477 -0.90108395 0 0
24.85651 14.934543 0.78376007 0 0 -1 0
42.968208 24.384571 15.7838 0 -0 1 0
80.426178 18.649 13.991678 0 1 -0 0
80.233307 10.0047 9.8292656 0 -1 0 0
60.412239 35.052834 9.9637709 0.98484457 0.17343906 0 0
54.253967 18.15802 0.78376007 0 0 -1 0
33.773075 8.0718403 11.464332 -0.82572371 -0.56407475 0 0
37.973873 25.205364 0.78376001 0 0 -1 0
20.385559 16.859209 0.78375995 0 0 -1 0
25.108702 32.346165 10.414413 0.34074026 0.94015741 0 0
83.827789 18.649 9.3951063 0 1 -0 0
21.621641 28.622068 1.3043146 -0.94752479 0.31968224 0 0
47.065617 1.045821 8.0268059 0.066268533 -0.99780095 -0.0012981259 0
61.555717 19.892811 15.7838 0 -0 1 0
23.39032 32.457653 1.1401854 -0.56367016 0.82599998 0 0
24.014351 12.129637 15.7838 0 -0 1 0
55.017349 9.8378 0.78376001 0 0 -1 0
14.923376 13.640989 0.78376001 0 0 -1 0
57.766449 30.609066 15.7838 0 0 1 0
72.57814 17.424717 8.828248 -0.39156517 0.9201504 0 0
22.357599 30.803415 1.600378 -0.94752479 0.31968224 0 0
58.886173 6.0842505 15.436932 0.74684268 -0.6650008 0 0
53.062016 22.030233 0.78376001 0 0 -1 0
36.169025 33.848888 11.778437 -0.77901131 0.62700987 0 0
70.527626 17.214441 4.7919464 0.067515753 0.99771827 0 0
20.098511 24.107574 7.7573156 -0.94752479 0.31968224 0 0
9.1150007 11.096763 0.78375995 0 0 -1 0
7.385541 9.9348335 1.8563571 0.019088468 -0.99981779 0 0
30.484341 26.312595 15.7838 0 0 1 0
26.996023 31.662144 7.8217421 0.34074026 0.94015741 0 0
46.098103 15.584281 15.7838 0 -0 1 0
65.381248 16.006512 15.7838 0 0 1 0
61.919033 13.447924 15.7838 0 0 1 0
39.411438 37.877335 13.918337 -0.77901131 0.62700987 0 0
72.663162 17.460899 11.023327 -0.39156517 0.9201504 0 0
4.1306486 10.469053 15.7838 0 0 1 0
13.382447 17.086033 0.78375995 0 0 -1 0
64.622673 11.85289 10.481575 0.21937752 -0.97564 0 0
19.860653 13.387495 15.7838 0 0 1 0
81.821991 18.649 11.04333 0 1 -0 0
49.084816 10.088725 0.78376001 0 0 -1 0
59.422569 20.748289 0.78376001 0 0 -1 0
52.451443 40.767029 0.78376001 0 0 -1 0
12.437168 10.423526 11.728173 0.42664117 -0.90442103 0 0
40.954453 22.02862 15.7838 0 -0 1 0
25.018085 32.379005 1.3762441 0.34074026 0.94015741 0 0
60.337242 24.471281 15.7838 0 0 1 0
76.177887 10.019464 8.3574648 -0.071937926 -0.99740916 0 0
43.1105 9.2614784 15.7838 0 0 1 0
49.213257 40.360058 15.7838 0 0 1 0
3.9534702 13.847069 15.7838 0 0 1 0
9.2429962 11.921982 15.7838 0 0 1 0
35.775627 10.271967 0.78376001 0 0 -1 0
63.435387 16.744267 15.783801 0 0 1 0
40.670822 36.00811 0.78375995 0 0 -1 0
14.978142 17.150534 0.78376001 0 0 -1 0
20.757868 10.573017 4.4446297 -0.44004148 -0.89797688 -0.00099394331 0
59.186012 10.939495 15.7838 0 -0 1 0
0.12325899 14.367985 12.416759 -1 0 0 0
84.216087 10.0047 8.8498421 0 -1 0 0
55.49213 19.474968 0.78376001 0 0 -1 0
44.126053 19.473368 0.78375995 0 0 -1 0
22.361364 25.716333 0.78376001 0 0 -1 0
57.905178 9.8405886 15.7838 0 -0 1 0
79.297485 18.649 13.853014 0 1 -0 0
65.321495 20.605417 5.3383255 0.88724279 0.46130258 0.00025032327 0
48.728252 37.571537 15.7838 0 0 1 0
59.554977 30.170094 0.78376001 0 0 -1 0
70.608788 11.89496 1.2830861 -0.06760022 -0.99771249 0 0
25.083218 9.8164902 14.286758 0.1522608 -0.98834038 -7.6891789e-05 0
20.420668 10.754945 2.2669678 -0.58334762 -0.81222242 -0.00036059291 0
57.090435 23.354879 15.783801 0 -0 1 0
54.652527 3.0675635 7.5973587 0.43776467 -0.8990894 0.00048950117 0
58.40242 37.386147 15.7838 0 0 1 0
31.406576 30.14282 13.1944 0.1945972 0.98088223 0.0013781342 0
57.511673 4.8369613 2.0762842 0.6593008 -0.75187922 0 0
59.686737 33.220032 15.7838 0 0 1 0
54.099976 36.922131 0.78376007 0 0 -1 0
48.348118 29.302639 15.7838 0 0 1 0
0.12325899 16.736237 15.03769 -1 0 0 0
79.107628 18.649 5.4383092 0 1 0 0
70.91613 17.18815 7.3187947 0.067515753 0.99771827 -0 0
20.754795 26.052778 8.1001997 -0.94752479 0.31968224 0 0
59.299923 6.5489221 7.4169421 0.74684268 -0.6650008 0 0
29.050003 11.939979 15.783801 0 0 1 0
60.363075 17.524342 0.78376001 0 0 -1 0
4.6555629 15.470814 0.78375995 0 0 -1 0
44.585243 29.514843 0.78375995 0 0 -1 0
60.375202 35.263142 7.8801498 0.98484457 0.17343906 0 0
30.736813 10.340722 2.6705353 -0.36770099 -0.92994273 0.0015254382 0
36.873779 14.582893 0.78376001 0 0 -1 0
80.107956 18.649 13.449043 0 1 -0 0
11.73527 10.120605 11.837016 0.26897505 -0.96314716 0 0
61.35413 30.737003 7.5058875 0.9600817 0.27971148 0.0021819291 0
78.351822 10.0047 7.3341923 0 -1 0 0
15.354411 12.824892 15.7838 0 0 1 0
73.131149 14.457827 0.78376001 0 0 -1 0
63.805859 23.765854 11.843937 0.92391115 0.38259166 0.0034324594 0
64.026688 15.17874 15.7838 0 0 1 0
79.3592 10.0047 8.1187553 0 -1 0 0
26.283751 12.90432 15.7838 0 0 1 0
32.625614 20.202183 15.7838 0 0 1 0
4.9384384 14.752094 0.78375995 0 0 -1 0
82.686844 18.649 9.159687 0 1 -0 0
21.773645 29.072609 5.1316223 -0.94752479 0.31968224 0 0
45.185242 30.378284 0.78376007 0 0 -1 0
51.637672 3.2589455 0.78376001 0 0 -1 0
43.239555 37.849461 0.78376001 0 0 -1 0
60.614616 22.620142 15.7838 0 -0 1 0
54.097809 18.152269 15.7838 0 -0 1 0
36.707611 7.3582563 15.7838 0 -0 1 0
22.98634 9.8177328 1.4095563 -0.10530615 -0.99443984 0.00011190918 0
7.4704146 18.888901 6.2427745 0 1 0 0
27.394972 17.188681 0.78376007 0 0 -1 0
20.736559 25.998726 1.7102494 -0.94752479 0.31968224 0 0
47.443619 42.770477 6.8987103 0.21046641 0.97760105 -0 0
79.308594 10.0047 2.3464179 0 -1 0 0
9.4199543 10.054858 0.89381987 0.013053145 -0.70694607 -0.70714706 0
75.995682 13.726591 15.7838 0 -0 1 0
16.209301 11.7486 14.837741 0 -1 0 0
46.888386 10.243155 0.78376001 0 0 -1 0
61.092598 9.0472069 3.4411082 0.87613136 -0.48207256 0 0
81.814919 18.649 3.4926667 0 1 0 0
20.698236 25.885136 2.2638528 -0.94752479 0.31968224 0 0
78.264359 10.0047 11.879004 0 -1 0 0
9.1474047 18.888901 7.0440702 0 1 -0 0
16.756113 17.668573 5.7952332 -0.22856751 0.97352809 0 0
18.505161 11.713578 7.4403491 -0.18681733 -0.98239034 0.002918296 0
60.027943 10.931293 15.7838 0 0 1 0
